# .PCD v0.7 - Point Cloud Data file format
VERSION 0.7
FIELDS x y z rgb
SIZE 4 4 4 4
TYPE F F F F
COUNT 1 1 1 1
WIDTH 920
HEIGHT 1
VIEWPOINT 0 0 0 1 0 0 0
POINTS 920
DATA ascii
0.12699188 0.12322764 0.0214416 1.880790849e-38
0.140157 0.105576 0.02148 1.880790849e-38
0.136561 0.1034466667 0.01052 1.880790849e-38
0.103595 0.132397 0.04578 1.880790849e-38
0.09795835 0.10288355 0.026814 1.880790849e-38
0.1173164 0.1277604 0.010536 1.880790849e-38
0.09599975 0.1099974167 0.01423 1.880790849e-38
0.107035 0.137658 0.03144 1.880790849e-38
0.1052644286 0.1043072857 0.01049142857 1.880790849e-38
0.128645 0.0970805 0.01344 1.880790849e-38
0.117199913 0.1268812609 0.01804173913 1.880790849e-38
0.1281375714 0.09866728571 0.01208 1.880790849e-38
0.1341760769 0.1048268462 0.02842615385 1.880790849e-38
0.09303209434 0.1170449434 0.03018339623 1.880790849e-38
0.1039860303 0.1129738182 0.04205818182 1.880790849e-38
0.111976825 0.101782025 0.016215 1.880790849e-38
0.098224 0.1160815 0.01050666667 1.880790849e-38
0.097344 0.10526 0.01724571429 1.880790849e-38
0.1132725 0.1192935 0.03948 1.880790849e-38
0.1060366 0.12085112 0.010536 1.880790849e-38
0.092931 0.104206 0.0102 1.880790849e-38
0.097907 0.101252 0.0102 1.880790849e-38
0.1179725455 0.1247509091 0.004183636364 1.880790849e-38
0.1199604079 0.1290107632 0.01720421053 1.880790849e-38
0.1400404565 0.1129987609 0.02118782609 1.880790849e-38
0.1099657532 0.1210251688 0.04814649351 1.880790849e-38
0.113060375 0.105374375 0.02781 1.880790849e-38
0.098797 0.101145 0.0102 1.880790849e-38
0.1072621667 0.1033025 0.01048 1.880790849e-38
0.1100277571 0.1239337 0.00312 1.880790849e-38
0.09816536842 0.1131372105 0.01038315789 1.880790849e-38
0.09203165672 0.1069945522 0.03119641791 1.880790849e-38
0.1189527 0.0963752 0.010392 1.880790849e-38
0.1072112857 0.1042016429 0.009437142857 1.880790849e-38
0.09361211111 0.1172837778 0.03130666667 1.880790849e-38
0.1140191538 0.09902484615 0.01034769231 1.880790849e-38
0.1280479231 0.1229833692 0.02422153846 1.880790849e-38
0.1101246316 0.1246805789 0.002943157895 1.880790849e-38
0.1136178333 0.1234636667 0.01412 1.880790849e-38
0.09578719231 0.1191725385 0.03427846154 1.880790849e-38
0.116633 0.098567 0.00984 1.880790849e-38
0.1426638421 0.113928 0.008317894737 1.880790849e-38
0.110073 0.1020398333 0.01620666667 1.880790849e-38
0.1018693333 0.1160296667 0.009866666667 1.880790849e-38
0.1149531111 0.1238791111 0.01036 1.880790849e-38
0.0950662 0.1089788308 0.01627938462 1.880790849e-38
0.09895178431 0.1118941373 0.04330352941 1.880790849e-38
0.1040217097 0.1199610806 0.01036258065 1.880790849e-38
0.1129805893 0.119006 0.03130928571 1.880790849e-38
0.1240489189 0.09780024324 0.02027675676 1.880790849e-38
0.1182995 0.127968 0.05379 1.880790849e-38
0.12522125 0.0975793 0.016254 1.880790849e-38
0.1168909041 0.09703928767 0.01726191781 1.880790849e-38
0.1025755 0.115272 0.00972 1.880790849e-38
0.135883381 0.1227703333 0.01814571429 1.880790849e-38
0.1000128462 0.1131343077 0.009886153846 1.880790849e-38
0.110592 0.1035457143 0.006188571429 1.880790849e-38
0.09860833333 0.1056270833 0.01509 1.880790849e-38
0.1020261429 0.1079493571 0.009891428571 1.880790849e-38
0.1380564035 0.104901807 0.01513263158 1.880790849e-38
0.1010430526 0.1160398421 0.00996 1.880790849e-38
0.1219450227 0.1288098864 0.01223454545 1.880790849e-38
0.1356966 0.1216849 0.011316 1.880790849e-38
0.09389067391 0.1171058043 0.02716173913 1.880790849e-38
0.1339995909 0.1013588182 0.01124727273 1.880790849e-38
0.1327648824 0.1228667941 0.007341176471 1.880790849e-38
0.1357569091 0.1013691818 0.02109818182 1.880790849e-38
0.1011246364 0.1129749091 0.009796363636 1.880790849e-38
0.1010085385 0.1119808462 0.009821538462 1.880790849e-38
0.1389643636 0.1101735455 0.0003927272727 1.880790849e-38
0.1302998235 0.1005710588 0.01022823529 1.880790849e-38
0.12306175 0.09754354167 0.01027 1.880790849e-38
0.1289570351 0.0998582807 0.02325052632 1.880790849e-38
0.1171126316 0.09804447368 0.01033263158 1.880790849e-38
0.1260429733 0.12697852 0.0162016 1.880790849e-38
0.1023503333 0.123656 0.01364 1.880790849e-38
0.11290216 0.10094384 0.0102624 1.880790849e-38
0.1398771778 0.1069766222 0.016232 1.880790849e-38
0.127012375 0.1223743333 0.026265 1.880790849e-38
0.1290046667 0.1244733333 0.00976 1.880790849e-38
0.104652 0.107179 0.00972 1.880790849e-38
0.10633375 0.110034 0.00642 1.880790849e-38
0.1101217143 0.1019586429 0.01326 1.880790849e-38
0.1031173226 0.1078932903 0.001072258065 1.880790849e-38
0.09888972973 0.1120617838 0.01020324324 1.880790849e-38
0.1019885733 0.10599196 0.0402 1.880790849e-38
0.1129957143 0.102987381 0.02416380952 1.880790849e-38
0.10401425 0.107817 0.00972 1.880790849e-38
0.1229171207 0.09804898276 0.007123448276 1.880790849e-38
0.10293 0.108587 0.00972 1.880790849e-38
0.1100187059 0.1030860588 0.008110588235 1.880790849e-38
0.111356 0.116441 0.03168 1.880790849e-38
0.09884555172 0.1068122414 0.01205793103 1.880790849e-38
0.1021185882 0.1090332353 0.009762352941 1.880790849e-38
0.1093261333 0.1327438 0.045096 1.880790849e-38
0.1228895714 0.127605381 0.01031428571 1.880790849e-38
0.1129214884 0.1009973023 0.01622790698 1.880790849e-38
0.1259313913 0.1266900435 0.01028869565 1.880790849e-38
0.096782 0.1192934444 0.02317333333 1.880790849e-38
0.1260502698 0.09711774603 0.01623619048 1.880790849e-38
0.1326666923 0.1247133846 0.01025538462 1.880790849e-38
0.09144333333 0.1147711667 0.03084 1.880790849e-38
0.1165444 0.1263738 0.015456 1.880790849e-38
0.1081985 0.1206003333 0.00948 1.880790849e-38
0.1111194545 0.1236879091 0.04228363636 1.880790849e-38
0.09504802083 0.1199187083 0.0322075 1.880790849e-38
0.116422 0.12465625 0.00744 1.880790849e-38
0.1047383571 0.1072316429 0.002468571429 1.880790849e-38
0.142823186 0.1138928837 0.01016093023 1.880790849e-38
0.12098325 0.12813705 0.012111 1.880790849e-38
0.1170218519 0.09938296296 0.004142222222 1.880790849e-38
0.14367775 0.11283335 0.01023 1.880790849e-38
0.101356 0.1024705 0.02106 1.880790849e-38
0.1010790833 0.10313425 0.02304 1.880790849e-38
0.1419063103 0.1053741034 0.01013793103 1.880790849e-38
0.095106725 0.108104525 0.024195 1.880790849e-38
0.131677625 0.1003418125 0.0102 1.880790849e-38
0.1216545 0.09643866667 0.01028 1.880790849e-38
0.1373460833 0.1056466667 0.01024 1.880790849e-38
0.1198333529 0.09627494118 0.01017176471 1.880790849e-38
0.0914224 0.1043706 0.030864 1.880790849e-38
0.0996485 0.10341 0.01458 1.880790849e-38
0.138022125 0.1059529821 0.02325642857 1.880790849e-38
0.1039870952 0.1359906508 0.05021333333 1.880790849e-38
0.1010088193 0.1220369759 0.03223951807 1.880790849e-38
0.1118840357 0.1020023571 0.01719857143 1.880790849e-38
0.09798701754 0.1160623333 0.01122526316 1.880790849e-38
0.111270875 0.1012255625 0.0101775 1.880790849e-38
0.1019824098 0.1030204098 0.02120262295 1.880790849e-38
0.1040308696 0.1051026957 0.01032 1.880790849e-38
0.122922625 0.098966175 0.005241 1.880790849e-38
0.1290233768 0.1259617826 0.01619478261 1.880790849e-38
0.1260293939 0.1229697424 0.003170909091 1.880790849e-38
0.1131745926 0.123088 0.01013333333 1.880790849e-38
0.1250369 0.09782056 0.0121632 1.880790849e-38
0.1180009286 0.127829 0.010365 1.880790849e-38
0.1188852979 0.127881234 0.01029702128 1.880790849e-38
0.1392116667 0.113051697 0.02420727273 1.880790849e-38
0.129957875 0.098078375 0.014271 1.880790849e-38
0.1166640909 0.1221725455 0.04932545455 1.880790849e-38
0.1436206923 0.1071585385 0.009313846154 1.880790849e-38
0.1054695 0.1085205 0.03558 1.880790849e-38
0.09378777778 0.1089621111 0.0042 1.880790849e-38
0.1239349859 0.1269790563 0.01022873239 1.880790849e-38
0.1369163333 0.1040741667 0.00316 1.880790849e-38
0.130956 0.124986169 0.01022028169 1.880790849e-38
0.1358918947 0.120865807 0.01024421053 1.880790849e-38
0.1097407273 0.1222504545 0.04321636364 1.880790849e-38
0.1030652963 0.121423963 0.02916444444 1.880790849e-38
0.1189848571 0.1089049286 0.0312 1.880790849e-38
0.1010596724 0.1069540172 0.04131724138 1.880790849e-38
0.1109516444 0.1209853778 0.006229333333 1.880790849e-38
0.1158776552 0.1038417586 0.02625517241 1.880790849e-38
0.1149911818 0.1231570909 0.04272 1.880790849e-38
0.1379347286 0.1170625286 0.01026 1.880790849e-38
0.141072 0.115624 0.02184 1.880790849e-38
0.1390393906 0.1070050156 0.012178125 1.880790849e-38
0.1396846429 0.1060834286 0.0192 1.880790849e-38
0.1270041569 0.1231000588 0.02322117647 1.880790849e-38
0.1438549412 0.1109412549 0.01023294118 1.880790849e-38
0.1083336667 0.1034436667 0.00948 1.880790849e-38
0.09976273333 0.1192628 0.01192 1.880790849e-38
0.1347752941 0.1169147647 0.02993647059 1.880790849e-38
0.1219645714 0.1295651429 0.01348285714 1.880790849e-38
0.1251366667 0.0964225 0.01747 1.880790849e-38
0.1118516286 0.1010806286 0.0102 1.880790849e-38
0.114535 0.102514 0.02268 1.880790849e-38
0.1350341136 0.1149935455 0.03015545455 1.880790849e-38
0.095373 0.102281 0.01116 1.880790849e-38
0.1379902553 0.1052157021 0.01018978723 1.880790849e-38
0.1359550909 0.1030942909 0.01017818182 1.880790849e-38
0.1309112222 0.1000900741 0.01022444444 1.880790849e-38
0.097541 0.105109 0.00408 1.880790849e-38
0.1102406129 0.1021442581 0.01023870968 1.880790849e-38
0.1401247419 0.1109839355 0.01719483871 1.880790849e-38
0.1090744324 0.1030692703 0.01018378378 1.880790849e-38
0.1340422414 0.1037083448 0.002217931034 1.880790849e-38
0.12808888 0.12624856 0.0161424 1.880790849e-38
0.1029785862 0.1219670172 0.01214896552 1.880790849e-38
0.1049897321 0.1210070536 0.01111928571 1.880790849e-38
0.1339596739 0.1021364783 0.007095652174 1.880790849e-38
0.121885129 0.09771916129 0.008256774194 1.880790849e-38
0.1079904722 0.1247866389 0.01522333333 1.880790849e-38
0.09904761224 0.1090288571 0.01020979592 1.880790849e-38
0.1120693846 0.121978 0.01028769231 1.880790849e-38
0.1369495417 0.1170076042 0.00825 1.880790849e-38
0.10172 0.104549 0.0138 1.880790849e-38
0.115906125 0.1268255417 0.01425 1.880790849e-38
0.1230080649 0.1269787922 0.01016883117 1.880790849e-38
0.1241081667 0.1264063333 0.010115 1.880790849e-38
0.1251036275 0.1261770196 0.01017647059 1.880790849e-38
0.094319 0.11775585 0.018192 1.880790849e-38
0.1073087273 0.119914 0.04694181818 1.880790849e-38
0.1260482727 0.1259962121 0.01017272727 1.880790849e-38
0.1160984524 0.1229351905 0.04819714286 1.880790849e-38
0.123308 0.117585 0.033 1.880790849e-38
0.1020473 0.1225219 0.031242 1.880790849e-38
0.1230587966 0.1030288814 0.03024813559 1.880790849e-38
0.1290072414 0.1250168793 0.01017517241 1.880790849e-38
0.1410531481 0.1058515926 0.008148888889 1.880790849e-38
0.1400846136 0.1119320455 0.01521272727 1.880790849e-38
0.112724 0.100015 0.01908 1.880790849e-38
0.13144675 0.12442425 0.0099 1.880790849e-38
0.1057808889 0.1207201852 0.03711555556 1.880790849e-38
0.112794 0.121498 0.00648 1.880790849e-38
0.1330689483 0.1230968103 0.01023103448 1.880790849e-38
0.1339716897 0.1013006897 0.01226482759 1.880790849e-38
0.09294787037 0.1129757778 0.04031777778 1.880790849e-38
0.1079748228 0.1099864684 0.03421518987 1.880790849e-38
0.1369913393 0.1180286607 0.01011 1.880790849e-38
0.1090229552 0.1249607015 0.01719223881 1.880790849e-38
0.1338518889 0.119839963 0.02906222222 1.880790849e-38
0.1333345714 0.1234172143 0.01410857143 1.880790849e-38
0.110466 0.102497 0.00624 1.880790849e-38
0.09119939474 0.1052030263 0.02927684211 1.880790849e-38
0.0917695 0.10667675 0.01407 1.880790849e-38
0.1374348 0.1162304 0.00984 1.880790849e-38
0.1050308909 0.1070184909 0.03418472727 1.880790849e-38
0.1380086892 0.1160150135 0.01018702703 1.880790849e-38
0.1100016897 0.1140666379 0.03319034483 1.880790849e-38
0.1290536176 0.1180149118 0.001136470588 1.880790849e-38
0.105472 0.107689 0.00372 1.880790849e-38
0.1167312222 0.1271018889 0.01322 1.880790849e-38
0.1419719114 0.1139323291 0.01018481013 1.880790849e-38
0.114408 0.102476 0.02472 1.880790849e-38
0.1250278378 0.1258832162 0.007271351351 1.880790849e-38
0.106306 0.119862 0.00132 1.880790849e-38
0.11105444 0.1199340667 0.048176 1.880790849e-38
0.1011380811 0.1058348919 0.001135135135 1.880790849e-38
0.1079608205 0.1249273974 0.02423076923 1.880790849e-38
0.142402 0.106670125 0.0102375 1.880790849e-38
0.0947864 0.1099957 0.024186 1.880790849e-38
0.1060587541 0.125923 0.02223344262 1.880790849e-38
0.09293377778 0.1010071111 0.03237333333 1.880790849e-38
0.1419639368 0.1059840737 0.01022905263 1.880790849e-38
0.0945942 0.11095008 0.0242544 1.880790849e-38
0.09529761111 0.1120716111 0.01348666667 1.880790849e-38
0.1045506667 0.1215726667 0.04012 1.880790849e-38
0.1092351538 0.1109549231 0.03048 1.880790849e-38
0.1401693409 0.1120285 0.01613454545 1.880790849e-38
0.118962 0.0979838254 0.02024 1.880790849e-38
0.1082765 0.102486 0.01158 1.880790849e-38
0.1385985714 0.1149861429 0.02682857143 1.880790849e-38
0.1370260909 0.1049327727 0.01021090909 1.880790849e-38
0.1362975714 0.1046769286 0.01011428571 1.880790849e-38
0.1359701639 0.1039390492 0.01020983607 1.880790849e-38
0.09236303571 0.1079894286 0.03517714286 1.880790849e-38
0.1029691163 0.1161017907 0.003281860465 1.880790849e-38
0.13541 0.1035792 0.009888 1.880790849e-38
0.1038916341 0.1220269756 0.01209365854 1.880790849e-38
0.1350249057 0.1029477736 0.01017283019 1.880790849e-38
0.1069379398 0.1200321807 0.04216337349 1.880790849e-38
0.1019443256 0.1219246744 0.01226790698 1.880790849e-38
0.09326288889 0.1150066667 0.0212 1.880790849e-38
0.1354545714 0.1213172857 0.01304571429 1.880790849e-38
0.1050297941 0.1213246471 0.03014823529 1.880790849e-38
0.132269 0.1015196667 0.0098 1.880790849e-38
0.09312011429 0.1178819429 0.02916342857 1.880790849e-38
0.1320422308 0.1170055 0.003219230769 1.880790849e-38
0.114104625 0.120168125 0.0499425 1.880790849e-38
0.13087564 0.12254836 0.0252 1.880790849e-38
0.1329835094 0.116971566 0.00408 1.880790849e-38
0.1209896721 0.09701454098 0.01019606557 1.880790849e-38
0.1353002941 0.1212621765 0.01215529412 1.880790849e-38
0.1159247917 0.09877858333 0.01015 1.880790849e-38
0.10500425 0.1199597679 0.01024071429 1.880790849e-38
0.1138973721 0.09994169767 0.01023069767 1.880790849e-38
0.09476 0.1079345714 0.008177142857 1.880790849e-38
0.1099023793 0.1030605862 0.01021241379 1.880790849e-38
0.1039241739 0.1059089348 0.01005913043 1.880790849e-38
0.1028064737 0.1069519474 0.009852631579 1.880790849e-38
0.1019476389 0.1068062222 0.01011666667 1.880790849e-38
0.1213823 0.128415 0.016428 1.880790849e-38
0.099979 0.1111186364 0.009807272727 1.880790849e-38
0.09405444828 0.1180312299 0.03418758621 1.880790849e-38
0.1052697143 0.1052042857 0.004902857143 1.880790849e-38
0.0999365 0.1160277 0.0099 1.880790849e-38
0.1149721818 0.1020296515 0.02223818182 1.880790849e-38
0.1019420526 0.1180227632 0.009922105263 1.880790849e-38
0.09401610169 0.1129477458 0.01716610169 1.880790849e-38
0.1126384444 0.1224052222 0.01206666667 1.880790849e-38
0.1100012615 0.1210070615 0.01017784615 1.880790849e-38
0.103924 0.1218796739 0.03619304348 1.880790849e-38
0.092936 0.104208 0.02556 1.880790849e-38
0.1052112 0.1185172 0.001872 1.880790849e-38
0.1159692766 0.1250368723 0.01014893617 1.880790849e-38
0.0917298125 0.1060100625 0.00717 1.880790849e-38
0.1208657778 0.1028737778 0.02841333333 1.880790849e-38
0.09500242647 0.1160215735 0.01619647059 1.880790849e-38
0.1069572553 0.1220672766 0.02926978723 1.880790849e-38
0.1179633594 0.1270845156 0.01014 1.880790849e-38
0.119998 0.1271822075 0.01006867925 1.880790849e-38
0.09173516667 0.1059883333 0.00048 1.880790849e-38
0.092796 0.1049497059 0.01018588235 1.880790849e-38
0.1206372 0.0964362 0.009432 1.880790849e-38
0.1000462326 0.117917 0.01036744186 1.880790849e-38
0.0917315625 0.10599125 0.0102 1.880790849e-38
0.116129 0.12494725 0.003306 1.880790849e-38
0.1249828409 0.1268562727 0.01023 1.880790849e-38
0.091778 0.106697375 0.0102 1.880790849e-38
0.109544 0.1213645 0.00042 1.880790849e-38
0.112599 0.101521 0.00648 1.880790849e-38
0.1088445238 0.1140690714 0.03610571429 1.880790849e-38
0.11439175 0.09911975 0.01785 1.880790849e-38
0.14304844 0.11296086 0.0102312 1.880790849e-38
0.09934366667 0.1092383333 0.00956 1.880790849e-38
0.138612 0.1156055 0.00948 1.880790849e-38
0.0910138 0.1040676 0.0324 1.880790849e-38
0.1001743333 0.1082578889 0.009493333333 1.880790849e-38
0.1040318889 0.1022766667 0.002204444444 1.880790849e-38
0.1115286667 0.118427 0.04064 1.880790849e-38
0.1148456216 0.09889986486 0.01523027027 1.880790849e-38
0.1180910588 0.1241626275 0.002202352941 1.880790849e-38
0.1380858382 0.1150055882 0.007215882353 1.880790849e-38
0.1120366875 0.1040363594 0.0251925 1.880790849e-38
0.1150244615 0.09810059615 0.01323 1.880790849e-38
0.09926981818 0.1142497273 0.00948 1.880790849e-38
0.1399450241 0.113011241 0.02225927711 1.880790849e-38
0.09100933333 0.1129296667 0.03428 1.880790849e-38
0.11269825 0.10463425 0.025575 1.880790849e-38
0.1100101739 0.1379808913 0.05115913043 1.880790849e-38
0.09537533333 0.1022813333 0.01624 1.880790849e-38
0.0979115 0.1012515 0.00948 1.880790849e-38
0.098796 0.1011445 0.00948 1.880790849e-38
0.1218861429 0.127571 0.00948 1.880790849e-38
0.137409 0.1055545 0.00954 1.880790849e-38
0.09766057143 0.120346 0.01707428571 1.880790849e-38
0.1289763387 0.1259854516 0.01518774194 1.880790849e-38
0.1067595357 0.1282226429 0.04516714286 1.880790849e-38
0.1260076984 0.1230124603 0.004142857143 1.880790849e-38
0.112491 0.122514 0.00924 1.880790849e-38
0.1328396429 0.1012128571 0.02398285714 1.880790849e-38
0.1190080909 0.1275878182 0.009469090909 1.880790849e-38
0.1040943158 0.1214057895 0.03126947368 1.880790849e-38
0.1173876667 0.09736066667 0.00924 1.880790849e-38
0.1029806364 0.1223692727 0.01286181818 1.880790849e-38
0.122076 0.0975493 0.00894 1.880790849e-38
0.1339555357 0.1020346607 0.01014428571 1.880790849e-38
0.09316205882 0.1140421373 0.02122588235 1.880790849e-38
0.1379405789 0.1190021228 0.01516 1.880790849e-38
0.1019355 0.1061505 0.00918 1.880790849e-38
0.102084 0.1070756 0.009384 1.880790849e-38
0.1049666364 0.1160155909 0.009229090909 1.880790849e-38
0.104070875 0.10997825 0.00909 1.880790849e-38
0.101535 0.1291883333 0.0448 1.880790849e-38
0.1226393333 0.1077716667 0.03156 1.880790849e-38
0.13572 0.122686125 0.01422 1.880790849e-38
0.132028575 0.1029793 0.004206 1.880790849e-38
0.1101652222 0.1346284444 0.05134666667 1.880790849e-38
0.1436110909 0.1127540909 0.009316363636 1.880790849e-38
0.100601 0.102083 0.02208 1.880790849e-38
0.129512 0.1265916667 0.01721333333 1.880790849e-38
0.1079635938 0.102877125 0.01518 1.880790849e-38
0.1249560833 0.1029862222 0.0303 1.880790849e-38
0.1000783889 0.1132810556 0.00932 1.880790849e-38
0.09358633333 0.1117846667 0.04064 1.880790849e-38
0.10512425 0.10710725 0.008382 1.880790849e-38
0.1000380526 0.1149455789 0.009385263158 1.880790849e-38
0.10542925 0.11861775 0.04485 1.880790849e-38
0.1049856429 0.1139801429 0.009085714286 1.880790849e-38
0.1329555385 0.1239917308 0.01122461538 1.880790849e-38
0.0913979 0.1138955 0.032088 1.880790849e-38
0.1050161905 0.1149384286 0.009165714286 1.880790849e-38
0.12885725 0.09835475 0.02094 1.880790849e-38
0.1257828182 0.1266119091 0.009283636364 1.880790849e-38
0.1229681781 0.1259848493 0.007183561644 1.880790849e-38
0.1030452647 0.1070739706 0.0093 1.880790849e-38
0.1099798333 0.1245813333 0.02696 1.880790849e-38
0.1359928276 0.115019569 0.02916413793 1.880790849e-38
0.09882516667 0.1096093333 0.04164 1.880790849e-38
0.1000643077 0.1111323462 0.009323076923 1.880790849e-38
0.09415477778 0.1180155556 0.03519466667 1.880790849e-38
0.105478 0.105452 0.00828 1.880790849e-38
0.1008886538 0.1149965769 0.009212307692 1.880790849e-38
0.1379686232 0.1200046087 0.01618782609 1.880790849e-38
0.10197885 0.117890775 0.009351 1.880790849e-38
0.09188133333 0.1070558333 0.01618 1.880790849e-38
0.1386503 0.1061323 0.024096 1.880790849e-38
0.1115245 0.12347425 0.04812 1.880790849e-38
0.09979808333 0.1212171667 0.014085 1.880790849e-38
0.1081014167 0.1022940833 0.01235 1.880790849e-38
0.09567461111 0.1181467778 0.01717333333 1.880790849e-38
0.1206371765 0.1307037059 0.05018823529 1.880790849e-38
0.1019347917 0.1161718333 0.00904 1.880790849e-38
0.1040646957 0.1060930435 0.009333913043 1.880790849e-38
0.1095493333 0.136874 0.02732 1.880790849e-38
0.09727236364 0.1217064545 0.01825090909 1.880790849e-38
0.09812252632 0.1179943158 0.04199368421 1.880790849e-38
0.1039213125 0.116055 0.0092475 1.880790849e-38
0.1250455192 0.09883528846 0.02236615385 1.880790849e-38
0.1395495 0.105441 0.00972 1.880790849e-38
0.1189714146 0.1248213659 0.02420195122 1.880790849e-38
0.1058331765 0.1170592941 0.008950588235 1.880790849e-38
0.1299557222 0.09985347222 0.02226666667 1.880790849e-38
0.10579305 0.1160926 0.008898 1.880790849e-38
0.1169642857 0.1255118571 0.02088 1.880790849e-38
0.1146962857 0.09968614286 0.01008 1.880790849e-38
0.137713 0.1052581429 0.0004457142857 1.880790849e-38
0.1118457391 0.1019863043 0.005235652174 1.880790849e-38
0.1132893333 0.1256117778 0.04726666667 1.880790849e-38
0.128775 0.1235513333 0.02388 1.880790849e-38
0.09799778049 0.1160459756 0.04224292683 1.880790849e-38
0.1040890625 0.1139551875 0.00933 1.880790849e-38
0.11484095 0.09898175 0.01227 1.880790849e-38
0.1384863333 0.1144446667 0.00916 1.880790849e-38
0.1119148378 0.1231142162 0.004378378378 1.880790849e-38
0.1039284412 0.1290204706 0.03928941176 1.880790849e-38
0.100059746 0.1220100159 0.03615619048 1.880790849e-38
0.117958619 0.0994607619 0.004222857143 1.880790849e-38
0.1329753529 0.1010283137 0.02318117647 1.880790849e-38
0.1373863333 0.1154536667 0.00888 1.880790849e-38
0.136441 0.117349 0.00876 1.880790849e-38
0.11762 0.098528 0.00876 1.880790849e-38
0.1437157727 0.1071255 0.0102 1.880790849e-38
0.1047862308 0.1091489231 0.04189846154 1.880790849e-38
0.09379057143 0.1089634286 0.01122857143 1.880790849e-38
0.115719 0.0995395 0.00882 1.880790849e-38
0.126137 0.1254295 0.00888 1.880790849e-38
0.09824661905 0.115169381 0.01045142857 1.880790849e-38
0.1119533437 0.1011101562 0.01422 1.880790849e-38
0.09822083333 0.1080853333 0.0105 1.880790849e-38
0.1280545769 0.1218937308 0.02912769231 1.880790849e-38
0.1047165714 0.123961381 0.04209142857 1.880790849e-38
0.1092461818 0.1127643636 0.03142909091 1.880790849e-38
0.09369058824 0.1087955882 0.03933176471 1.880790849e-38
0.1049678667 0.1119666667 0.008888 1.880790849e-38
0.09397601471 0.1059938529 0.03821117647 1.880790849e-38
0.1079223529 0.1109741569 0.005169411765 1.880790849e-38
0.1030350667 0.1321708 0.049904 1.880790849e-38
0.1318755135 0.124875973 0.009256216216 1.880790849e-38
0.105971425 0.120007475 0.011091 1.880790849e-38
0.11878 0.1246024286 0.001577142857 1.880790849e-38
0.1348147 0.1236909 0.01608 1.880790849e-38
0.1249618095 0.1011438095 0.00044 1.880790849e-38
0.1357467647 0.12071 0.009338823529 1.880790849e-38
0.1031035 0.1213275 0.04392 1.880790849e-38
0.109943575 0.122198775 0.042123 1.880790849e-38
0.1189475 0.109048 0.030432 1.880790849e-38
0.1372897273 0.1048576364 0.01308 1.880790849e-38
0.1420441579 0.1062353684 0.01194947368 1.880790849e-38
0.13147 0.1244214 0.015144 1.880790849e-38
0.1377782174 0.1168518696 0.00924 1.880790849e-38
0.13984772 0.11477068 0.0091584 1.880790849e-38
0.1010738235 0.1150440588 0.009974117647 1.880790849e-38
0.1409236471 0.1147092941 0.009190588235 1.880790849e-38
0.123038871 0.1287174194 0.01613806452 1.880790849e-38
0.1001371795 0.101803 0.03016923077 1.880790849e-38
0.101346 0.1030083333 0.02404 1.880790849e-38
0.09176133333 0.1066536667 0.00048 1.880790849e-38
0.13976816 0.10611396 0.0181344 1.880790849e-38
0.1270490588 0.1231607647 0.02229882353 1.880790849e-38
0.1282315 0.1244636667 0.00909 1.880790849e-38
0.1079693919 0.1130702432 0.03716108108 1.880790849e-38
0.09509645946 0.1080871351 0.02322486486 1.880790849e-38
0.09505487719 0.1130140175 0.01428 1.880790849e-38
0.1097595833 0.1204059167 0.00994 1.880790849e-38
0.1394025652 0.1120296957 0.02323826087 1.880790849e-38
0.133779 0.101399375 0.0091875 1.880790849e-38
0.13309115 0.1232822 0.013119 1.880790849e-38
0.09219075758 0.1159056364 0.03218909091 1.880790849e-38
0.1280383768 0.1259802319 0.01424347826 1.880790849e-38
0.09506347917 0.1180123958 0.026235 1.880790849e-38
0.1132557895 0.09993815789 0.009138947368 1.880790849e-38
0.09502911111 0.117948 0.02218666667 1.880790849e-38
0.13897225 0.1049955 0.01619470588 1.880790849e-38
0.1112894 0.1013587 0.009252 1.880790849e-38
0.1368488333 0.1206656667 0.02318666667 1.880790849e-38
0.110293375 0.102192125 0.0092025 1.880790849e-38
0.1402019286 0.1109489643 0.01824 1.880790849e-38
0.104943875 0.1057628125 0.009885 1.880790849e-38
0.1020727419 0.1079963871 0.009282580645 1.880790849e-38
0.09610306667 0.1090662 0.041848 1.880790849e-38
0.1009460968 0.1141132581 0.009116129032 1.880790849e-38
0.1219874699 0.1289894578 0.01519228916 1.880790849e-38
0.1358462143 0.1219053929 0.01227428571 1.880790849e-38
0.09368491304 0.117246087 0.02808521739 1.880790849e-38
0.114369 0.099256 0.00885 1.880790849e-38
0.1050620227 0.1189145455 0.009319090909 1.880790849e-38
0.1119189302 0.1208966047 0.03109674419 1.880790849e-38
0.1111177895 0.1217191579 0.00924 1.880790849e-38
0.1057270769 0.1259950769 0.04317230769 1.880790849e-38
0.1219750612 0.1239003265 0.003200816327 1.880790849e-38
0.09631814286 0.1080638571 0.01344857143 1.880790849e-38
0.1090472041 0.1219017347 0.002201632653 1.880790849e-38
0.1300636842 0.1026026316 0.02729684211 1.880790849e-38
0.09640183333 0.1160601667 0.01256 1.880790849e-38
0.1141433125 0.1237226875 0.00927 1.880790849e-38
0.11536875 0.124747875 0.00909 1.880790849e-38
0.1239542449 0.1269340612 0.009166530612 1.880790849e-38
0.1372066471 0.1038897059 0.01623882353 1.880790849e-38
0.1410348358 0.1060216418 0.007205373134 1.880790849e-38
0.1309505167 0.1249624667 0.009148 1.880790849e-38
0.101953375 0.1150150417 0.0431575 1.880790849e-38
0.1219588571 0.09639485714 0.01610285714 1.880790849e-38
0.1428064 0.1060778222 0.0092 1.880790849e-38
0.1080023333 0.1256572593 0.02322222222 1.880790849e-38
0.09271747826 0.1099916522 0.03718695652 1.880790849e-38
0.139104 0.10522 0.00912 1.880790849e-38
0.1129926389 0.09995958333 0.0004333333333 1.880790849e-38
0.10405 0.1020257077 0.01623876923 1.880790849e-38
0.1011116154 0.1177543846 0.009443076923 1.880790849e-38
0.1368759714 0.1042359143 0.009202285714 1.880790849e-38
0.119990434 0.1309524717 0.05020301887 1.880790849e-38
0.1240563529 0.1273742941 0.01607294118 1.880790849e-38
0.1041288696 0.1214116522 0.03016695652 1.880790849e-38
0.1099521429 0.1213255714 0.03051428571 1.880790849e-38
0.1328813846 0.1011771538 0.009218461538 1.880790849e-38
0.108639 0.103575 0.01088 1.880790849e-38
0.1319110784 0.1010026863 0.009150588235 1.880790849e-38
0.133633 0.120531 0.0288 1.880790849e-38
0.1039943824 0.1219638382 0.03820588235 1.880790849e-38
0.092636 0.104429 0.01116 1.880790849e-38
0.134921625 0.10430725 0.001275 1.880790849e-38
0.1229706863 0.09700084314 0.009202352941 1.880790849e-38
0.1188817857 0.09715128571 0.009188571429 1.880790849e-38
0.1120181842 0.1010367632 0.009157894737 1.880790849e-38
0.1260576286 0.1222032571 0.02726057143 1.880790849e-38
0.104263381 0.1249654762 0.04210857143 1.880790849e-38
0.1352705 0.1151218333 0.02944 1.880790849e-38
0.1099775161 0.1030560645 0.009158709677 1.880790849e-38
0.1080762143 0.1040527857 0.009141428571 1.880790849e-38
0.1209294058 0.100893913 0.001182608696 1.880790849e-38
0.1145892857 0.1233194286 0.01009714286 1.880790849e-38
0.1040817209 0.106952907 0.00920372093 1.880790849e-38
0.0942184 0.1001688 0.033048 1.880790849e-38
0.1009792857 0.1099458857 0.009133714286 1.880790849e-38
0.1059870392 0.1189127647 0.009195294118 1.880790849e-38
0.09387545 0.112996675 0.018135 1.880790849e-38
0.1100221837 0.1209817551 0.009183673469 1.880790849e-38
0.1120958182 0.1221026364 0.009158181818 1.880790849e-38
0.1140362941 0.1198764706 0.04916705882 1.880790849e-38
0.1373748667 0.1099606 0.027464 1.880790849e-38
0.1150431333 0.1238597333 0.009104 1.880790849e-38
0.1158604643 0.1248586071 0.009274285714 1.880790849e-38
0.091732 0.1059882143 0.008177142857 1.880790849e-38
0.1307111667 0.09921 0.01219333333 1.880790849e-38
0.1209515909 0.1270175152 0.009114545455 1.880790849e-38
0.12201875 0.12647025 0.00879 1.880790849e-38
0.1249629688 0.126117125 0.0091575 1.880790849e-38
0.0943389 0.11781115 0.019176 1.880790849e-38
0.1070673617 0.1199188085 0.04621021277 1.880790849e-38
0.1259581746 0.1259636349 0.009177142857 1.880790849e-38
0.1395476667 0.1167341667 0.01446 1.880790849e-38
0.133518 0.1226093333 0.00844 1.880790849e-38
0.1110466279 0.123998186 0.04812837209 1.880790849e-38
0.100771 0.1022315 0.01524 1.880790849e-38
0.1280157705 0.1249804426 0.009161311475 1.880790849e-38
0.1071178667 0.1246763333 0.026064 1.880790849e-38
0.128998931 0.1243716552 0.00919862069 1.880790849e-38
0.1405888824 0.1149312941 0.01723058824 1.880790849e-38
0.12994408 0.12439384 0.0090624 1.880790849e-38
0.1289996 0.1013116667 0.005304 1.880790849e-38
0.140038459 0.1119729508 0.01417770492 1.880790849e-38
0.1133529286 0.1003597857 0.01808571429 1.880790849e-38
0.1310798387 0.1243615161 0.009112258065 1.880790849e-38
0.1079698667 0.1351061333 0.053028 1.880790849e-38
0.1249647917 0.1160144167 0.032315 1.880790849e-38
0.1390126494 0.106985039 0.0222 1.880790849e-38
0.135097675 0.120176475 0.009126 1.880790849e-38
0.096022375 0.1179770972 0.025185 1.880790849e-38
0.1363087143 0.1181092857 0.009005714286 1.880790849e-38
0.09694998361 0.1089778525 0.01316655738 1.880790849e-38
0.1040059091 0.1250812545 0.02120072727 1.880790849e-38
0.1132666 0.1237627 0.012234 1.880790849e-38
0.1320407857 0.1219105714 0.02716928571 1.880790849e-38
0.1371842188 0.1161761875 0.00909 1.880790849e-38
0.1049571538 0.128935359 0.04725538462 1.880790849e-38
0.1419271111 0.1140300864 0.009151111111 1.880790849e-38
0.09529027778 0.1187169444 0.02315333333 1.880790849e-38
0.1430305185 0.1129374568 0.00914962963 1.880790849e-38
0.1431982222 0.1099873611 0.009136666667 1.880790849e-38
0.1250030536 0.1259652321 0.008247857143 1.880790849e-38
0.1431097925 0.1080192453 0.00914490566 1.880790849e-38
0.108061902 0.1030586471 0.01124941176 1.880790849e-38
0.1298351667 0.1002401111 0.0249 1.880790849e-38
0.1163302857 0.1278321429 0.01244571429 1.880790849e-38
0.1430015714 0.1070241169 0.009185454545 1.880790849e-38
0.1079923889 0.1252628889 0.02115 1.880790849e-38
0.0934118 0.1043282 0.036864 1.880790849e-38
0.1039742553 0.1230637447 0.01317446809 1.880790849e-38
0.1423925294 0.1066858235 0.009134117647 1.880790849e-38
0.1041234211 0.1238434474 0.01332 1.880790849e-38
0.141931 0.1059212162 0.009144324324 1.880790849e-38
0.102980127 0.1050334603 0.01122285714 1.880790849e-38
0.10603044 0.10291298 0.0141624 1.880790849e-38
0.1178516508 0.09701807937 0.01727238095 1.880790849e-38
0.1048318438 0.1062152187 0.03410625 1.880790849e-38
0.133008025 0.10088965 0.014175 1.880790849e-38
0.1119386364 0.1244738182 0.002290909091 1.880790849e-38
0.1150695385 0.1222919231 0.02854153846 1.880790849e-38
0.1358825625 0.1140227188 0.0004275 1.880790849e-38
0.1099224 0.1173894 0.046896 1.880790849e-38
0.1319859394 0.1180969091 0.004072727273 1.880790849e-38
0.09800161111 0.1170185 0.04132 1.880790849e-38
0.0986074 0.1150902 0.010824 1.880790849e-38
0.096771 0.1068450833 0.021185 1.880790849e-38
0.1129823636 0.1244555455 0.02345454545 1.880790849e-38
0.1250217627 0.09808669492 0.02209016949 1.880790849e-38
0.09999701818 0.1210755818 0.02811927273 1.880790849e-38
0.1381238966 0.105765931 0.009206896552 1.880790849e-38
0.1370720545 0.1050226727 0.009196363636 1.880790849e-38
0.13628365 0.1047061 0.009216 1.880790849e-38
0.1359830185 0.1039476481 0.009186666667 1.880790849e-38
0.1352175714 0.1036989048 0.009102857143 1.880790849e-38
0.1350199167 0.1030516458 0.0092 1.880790849e-38
0.1249644894 0.09710678723 0.01323319149 1.880790849e-38
0.09918511765 0.1072216471 0.01055294118 1.880790849e-38
0.13218732 0.10168916 0.0091008 1.880790849e-38
0.09322623077 0.1178835385 0.02824307692 1.880790849e-38
0.1179688718 0.09692138462 0.01222769231 1.880790849e-38
0.0974245 0.11681775 0.01152 1.880790849e-38
0.1302953571 0.1005770714 0.00912 1.880790849e-38
0.1080462727 0.1371437955 0.05225727273 1.880790849e-38
0.12488 0.125834 0.02196 1.880790849e-38
0.1299881569 0.09999680392 0.009164705882 1.880790849e-38
0.1042383333 0.1050038333 0.0081 1.880790849e-38
0.1359971852 0.1090033889 0.02919777778 1.880790849e-38
0.126948 0.09903191489 0.009262978723 1.880790849e-38
0.1139468667 0.1198553667 0.043032 1.880790849e-38
0.1309201429 0.1226990714 0.02622428571 1.880790849e-38
0.125329875 0.098570375 0.00906 1.880790849e-38
0.092578 0.110601 0.0336 1.880790849e-38
0.1079891481 0.1080867778 0.03014888889 1.880790849e-38
0.1250253167 0.09803288333 0.009198 1.880790849e-38
0.12296976 0.09761432 0.0091248 1.880790849e-38
0.1208621481 0.09709044444 0.009168888889 1.880790849e-38
0.1199271311 0.09703804918 0.009108196721 1.880790849e-38
0.1030864516 0.1349130645 0.04821677419 1.880790849e-38
0.1351774634 0.1211289512 0.01119219512 1.880790849e-38
0.1049806842 0.1192734737 0.01095789474 1.880790849e-38
0.09994472 0.10796782 0.010056 1.880790849e-38
0.10404076 0.10226728 0.0012384 1.880790849e-38
0.1119769744 0.1038436154 0.02424923077 1.880790849e-38
0.1158947955 0.09905102273 0.009174545455 1.880790849e-38
0.10499 0.1199476389 0.01108 1.880790849e-38
0.11392 0.1001004681 0.009181276596 1.880790849e-38
0.0948253 0.1078276 0.007236 1.880790849e-38
0.1276045 0.1235415 0.02478 1.880790849e-38
0.1021081795 0.1238470256 0.01429230769 1.880790849e-38
0.1014515 0.104556 0.03252 1.880790849e-38
0.110849963 0.1027356296 0.009137777778 1.880790849e-38
0.1190717368 0.1140182105 0.03208421053 1.880790849e-38
0.10860025 0.10458575 0.00885 1.880790849e-38
0.1068191429 0.1057836429 0.008905714286 1.880790849e-38
0.1393755862 0.1150194828 0.01509931034 1.880790849e-38
0.1050524308 0.1069458615 0.009197538462 1.880790849e-38
0.1101284474 0.1019425 0.01424842105 1.880790849e-38
0.10296092 0.10789812 0.0004464 1.880790849e-38
0.1019960606 0.1061936364 0.04108727273 1.880790849e-38
0.1130222444 0.1027269111 0.02322933333 1.880790849e-38
0.1040127812 0.1079973438 0.009105 1.880790849e-38
0.101978 0.1089008276 0.00907862069 1.880790849e-38
0.1372313542 0.1190799583 0.02219 1.880790849e-38
0.130721 0.1043903333 0.03086 1.880790849e-38
0.1041443929 0.1228272143 0.01227 1.880790849e-38
0.1351388333 0.1037530667 0.008208 1.880790849e-38
0.112412 0.10041 0.01584 1.880790849e-38
0.1039402093 0.1170685349 0.009150697674 1.880790849e-38
0.1127016667 0.1196933333 0.03184 1.880790849e-38
0.1050242571 0.1170435143 0.009092571429 1.880790849e-38
0.1120793913 0.1190993478 0.03130434783 1.880790849e-38
0.1060407581 0.1179990806 0.008947741935 1.880790849e-38
0.1260665833 0.12604875 0.0111625 1.880790849e-38
0.1070017627 0.1190686441 0.00912 1.880790849e-38
0.1092980476 0.1161994762 0.03250285714 1.880790849e-38
0.1137105 0.1005975 0.00885 1.880790849e-38
0.1170790417 0.1000037917 0.000385 1.880790849e-38
0.1078892857 0.1192833333 0.009028571429 1.880790849e-38
0.109973931 0.1202787586 0.00919862069 1.880790849e-38
0.1119341923 0.1212189615 0.009189230769 1.880790849e-38
0.1140963421 0.1191437632 0.04903894737 1.880790849e-38
0.1311211 0.1224057 0.023568 1.880790849e-38
0.1372385357 0.1088462857 0.02731714286 1.880790849e-38
0.113701 0.1222774286 0.00906 1.880790849e-38
0.1041424 0.1071946 0.00972 1.880790849e-38
0.1147797273 0.1232229091 0.009163636364 1.880790849e-38
0.1110149231 0.1159778974 0.03221538462 1.880790849e-38
0.1179592813 0.1261659687 0.00916875 1.880790849e-38
0.1189588649 0.1269869459 0.009154054054 1.880790849e-38
0.100076549 0.1240578824 0.04516235294 1.880790849e-38
0.1249409091 0.1003469091 0.02617090909 1.880790849e-38
0.091732 0.1059869167 0.00908 1.880790849e-38
0.1160495091 0.1247670727 0.004071272727 1.880790849e-38
0.1200605714 0.1274332857 0.01088571429 1.880790849e-38
0.104334 0.1176353333 0.00384 1.880790849e-38
0.09177316667 0.1066728333 0.00908 1.880790849e-38
0.112648 0.1015247778 0.007266666667 1.880790849e-38
0.1169394865 0.0970847027 0.0162 1.880790849e-38
0.09497579412 0.1100283529 0.01618058824 1.880790849e-38
0.1240853077 0.1092012308 0.03379384615 1.880790849e-38
0.1310335435 0.1058807174 0.0313826087 1.880790849e-38
0.1143704545 0.1267918182 0.04917818182 1.880790849e-38
0.119978 0.1289889833 0.014218 1.880790849e-38
0.09185372881 0.1070614068 0.02920067797 1.880790849e-38
0.092518 0.108796 0.00908 1.880790849e-38
0.09497929508 0.1080138525 0.02615016393 1.880790849e-38
0.1106526667 0.132194 0.04812 1.880790849e-38
0.1218666667 0.104661 0.03052 1.880790849e-38
0.1029078667 0.1170489333 0.041584 1.880790849e-38
0.09799723188 0.1209803623 0.01621913043 1.880790849e-38
0.10406 0.1051015 0.00882 1.880790849e-38
0.1089541538 0.1021733654 0.01422461538 1.880790849e-38
0.1050567708 0.1061021458 0.0092225 1.880790849e-38
0.108406 0.1228532857 0.0003942857143 1.880790849e-38
0.11701172 0.12381784 0.048168 1.880790849e-38
0.1426233333 0.1062853333 0.01188 1.880790849e-38
0.10664625 0.10704825 0.00882 1.880790849e-38
0.1339857538 0.1020076462 0.01217353846 1.880790849e-38
0.09911807317 0.108034561 0.01036097561 1.880790849e-38
0.09206144186 0.1159367674 0.02925209302 1.880790849e-38
0.1189267857 0.1149616429 0.03120857143 1.880790849e-38
0.105843 0.1096645 0.00876 1.880790849e-38
0.1438462093 0.1099889302 0.009237209302 1.880790849e-38
0.1021615 0.11398575 0.00864 1.880790849e-38
0.104254 0.1073253333 0.00862 1.880790849e-38
0.1020495 0.109317 0.00861 1.880790849e-38
0.1313196667 0.1035806667 0.02864 1.880790849e-38
0.0981848 0.110971 0.01044 1.880790849e-38
0.10418825 0.1176695 0.00858 1.880790849e-38
0.09701509524 0.1159443333 0.04210571429 1.880790849e-38
0.092656 0.104422 0.00852 1.880790849e-38
0.1380873636 0.1050656591 0.009188181818 1.880790849e-38
0.095366 0.102281 0.00852 1.880790849e-38
0.09791 0.101249 0.00852 1.880790849e-38
0.1399832813 0.1089978125 0.016213125 1.880790849e-38
0.1038321887 0.1319768679 0.03933056604 1.880790849e-38
0.09801809091 0.1030033333 0.02630181818 1.880790849e-38
0.1351560345 0.103742931 0.007220689655 1.880790849e-38
0.1129786364 0.119972 0.03116571429 1.880790849e-38
0.1065466 0.1150464 0.008304 1.880790849e-38
0.13365625 0.10147775 0.00846 1.880790849e-38
0.132609 0.122535 0.0066 1.880790849e-38
0.1219614746 0.1290002881 0.01423118644 1.880790849e-38
0.09359971429 0.117332 0.02909142857 1.880790849e-38
0.1049612963 0.1191540741 0.009946666667 1.880790849e-38
0.114347875 0.09942475 0.00846 1.880790849e-38
0.1040346429 0.1081243571 0.008494285714 1.880790849e-38
0.103159 0.1090034 0.00852 1.880790849e-38
0.1100749091 0.1030423182 0.006139090909 1.880790849e-38
0.1400707143 0.1100127143 0.01316 1.880790849e-38
0.1382153095 0.105944619 0.01418285714 1.880790849e-38
0.096909125 0.1069755 0.02322857143 1.880790849e-38
0.09925628571 0.115051 0.00954 1.880790849e-38
0.1041384667 0.1149786667 0.008496 1.880790849e-38
0.1250321818 0.09758172727 0.01956 1.880790849e-38
0.1400879286 0.1058586429 0.007048571429 1.880790849e-38
0.1190051395 0.1241481163 0.02522790698 1.880790849e-38
0.1301169231 0.125209 0.01618846154 1.880790849e-38
0.0972287027 0.121853 0.01921297297 1.880790849e-38
0.09793889655 0.118133931 0.04141655172 1.880790849e-38
0.1040736364 0.1161089091 0.008487272727 1.880790849e-38
0.1182301429 0.1267258571 0.00852 1.880790849e-38
0.1010036909 0.1249400364 0.04530327273 1.880790849e-38
0.1090380323 0.1207450323 0.009263225806 1.880790849e-38
0.12403566 0.10084092 0.026256 1.880790849e-38
0.116870125 0.1258379063 0.00925125 1.880790849e-38
0.1051582857 0.1179557857 0.008455714286 1.880790849e-38
0.1019829615 0.1140215385 0.009083076923 1.880790849e-38
0.1139467568 0.122879027 0.04145837838 1.880790849e-38
0.124162 0.122477 0.00078 1.880790849e-38
0.1436728125 0.1099735625 0.0083625 1.880790849e-38
0.1129368 0.1339686 0.049224 1.880790849e-38
0.1040875 0.1089665455 0.008356363636 1.880790849e-38
0.1008824848 0.1031268182 0.03312363636 1.880790849e-38
0.1109010769 0.1247113077 0.01634769231 1.880790849e-38
0.116411 0.100308 0.02184 1.880790849e-38
0.117035 0.098206 0.0084 1.880790849e-38
0.09508494286 0.1120739143 0.04194171429 1.880790849e-38
0.1076226667 0.112617 0.00496 1.880790849e-38
0.1059849091 0.1220180779 0.02921142857 1.880790849e-38
0.09239825 0.114616 0.03849 1.880790849e-38
0.105642 0.105477 0.00804 1.880790849e-38
0.09900715909 0.12182225 0.02921727273 1.880790849e-38
0.09698191892 0.1051402973 0.04000216216 1.880790849e-38
0.1349741207 0.1020337759 0.01220482759 1.880790849e-38
0.1009076154 0.1057977692 0.01211384615 1.880790849e-38
0.10833 0.124528 0.02676 1.880790849e-38
0.1019859024 0.1269912927 0.04715121951 1.880790849e-38
0.1068428929 0.1080651429 0.00822 1.880790849e-38
0.10884 0.12271615 0.012318 1.880790849e-38
0.1093972857 0.1326627143 0.04601142857 1.880790849e-38
0.12297075 0.1278667955 0.01132363636 1.880790849e-38
0.115975 0.1220245385 0.04718769231 1.880790849e-38
0.1019850469 0.1219718281 0.030095625 1.880790849e-38
0.1019539492 0.1270299831 0.04214237288 1.880790849e-38
0.1290703333 0.1217678333 0.02988 1.880790849e-38
0.1066502 0.1128596 0.007944 1.880790849e-38
0.1244515 0.0985265 0.00804 1.880790849e-38
0.1019430571 0.1149691714 0.04229485714 1.880790849e-38
0.1219604474 0.09619507895 0.01509789474 1.880790849e-38
0.1426729091 0.1061407727 0.00834 1.880790849e-38
0.1165528333 0.123413 0.00614 1.880790849e-38
0.1079599474 0.1255559474 0.02403789474 1.880790849e-38
0.110324 0.1023273 0.008352 1.880790849e-38
0.1031291429 0.1080696429 0.009788571429 1.880790849e-38
0.1040417727 0.1099642273 0.00822 1.880790849e-38
0.1020898919 0.1289684865 0.04795459459 1.880790849e-38
0.1229492727 0.1079125758 0.03224727273 1.880790849e-38
0.1382012222 0.1056367778 0.008353333333 1.880790849e-38
0.136292875 0.1046708125 0.008325 1.880790849e-38
0.09202578333 0.1130133167 0.027188 1.880790849e-38
0.106028561 0.1109820244 0.008253658537 1.880790849e-38
0.09458466667 0.115153 0.0226 1.880790849e-38
0.135403 0.118433 0.0078 1.880790849e-38
0.127397 0.124491 0.00798 1.880790849e-38
0.1038801186 0.1329941017 0.04226847458 1.880790849e-38
0.1339402321 0.1219166607 0.009184285714 1.880790849e-38
0.1068618077 0.1089871923 0.008035384615 1.880790849e-38
0.1319247037 0.1010225926 0.02413333333 1.880790849e-38
0.1309466053 0.1247785789 0.008264210526 1.880790849e-38
0.1089901053 0.1191308947 0.03157894737 1.880790849e-38
0.1327403478 0.1237571304 0.008285217391 1.880790849e-38
0.0912620625 0.113993625 0.0311925 1.880790849e-38
0.112103 0.125541 0.05004 1.880790849e-38
0.1397928667 0.1148643333 0.0082 1.880790849e-38
0.14086465 0.1148122 0.008178 1.880790849e-38
0.1229955143 0.1288174286 0.01726971429 1.880790849e-38
0.1000855909 0.101824 0.02916 1.880790849e-38
0.1239689286 0.09730221429 0.008357142857 1.880790849e-38
0.1260332727 0.09881881818 0.009133636364 1.880790849e-38
0.1230814706 0.09717952941 0.008343529412 1.880790849e-38
0.13757 0.104458 0.00846 1.880790849e-38
0.119055 0.09724833333 0.008253333333 1.880790849e-38
0.114040125 0.1190835 0.030395 1.880790849e-38
0.1405568889 0.1090522222 0.01538666667 1.880790849e-38
0.1152348462 0.09915115385 0.00816 1.880790849e-38
0.13138 0.09956 0.01572 1.880790849e-38
0.1397247407 0.1169859259 0.02106222222 1.880790849e-38
0.1082457619 0.1042447619 0.00828 1.880790849e-38
0.12094334 0.10085448 0.0022752 1.880790849e-38
0.1009925385 0.1089036154 0.009849230769 1.880790849e-38
0.09733463636 0.1089969091 0.01146545455 1.880790849e-38
0.1040123226 0.1247729355 0.01526322581 1.880790849e-38
0.1130502941 0.1240242059 0.01428 1.880790849e-38
0.1319216087 0.1217138696 0.02912347826 1.880790849e-38
0.1061068437 0.1061767188 0.00829875 1.880790849e-38
0.1210552444 0.1279287333 0.02012533333 1.880790849e-38
0.1050925 0.1080132692 0.008358461538 1.880790849e-38
0.099515 0.106586 0.01188 1.880790849e-38
0.1050469474 0.1142261053 0.008197894737 1.880790849e-38
0.137336 0.105555 0.00198 1.880790849e-38
0.132959963 0.1239209815 0.01017555556 1.880790849e-38
0.1050375652 0.1169780217 0.008337391304 1.880790849e-38
0.1366752857 0.1148996429 0.02896285714 1.880790849e-38
0.1119255634 0.1189917324 0.03199943662 1.880790849e-38
0.09370722222 0.1129775833 0.01918 1.880790849e-38
0.1111785 0.1216503333 0.00832 1.880790849e-38
0.1056779333 0.1261234 0.042256 1.880790849e-38
0.122063475 0.12388525 0.002214 1.880790849e-38
0.1296762 0.09936306667 0.00924 1.880790849e-38
0.09596345902 0.107963541 0.01615672131 1.880790849e-38
0.1159110769 0.1247120769 0.008316923077 1.880790849e-38
0.1107237143 0.102660381 0.01013142857 1.880790849e-38
0.1219587692 0.1295637692 0.01492615385 1.880790849e-38
0.1247627692 0.09643646154 0.01515692308 1.880790849e-38
0.09400726506 0.111982988 0.02517108434 1.880790849e-38
0.1049668302 0.1180249811 0.009092830189 1.880790849e-38
0.1119674302 0.1199892558 0.03123906977 1.880790849e-38
0.117123 0.1256766316 0.008292631579 1.880790849e-38
0.09516915385 0.1199709744 0.02919692308 1.880790849e-38
0.1305296667 0.09943233333 0.01152 1.880790849e-38
0.1208438525 0.1269894262 0.00830557377 1.880790849e-38
0.1070190862 0.1200281897 0.04514482759 1.880790849e-38
0.1259742037 0.1259376852 0.008268888889 1.880790849e-38
0.1289789512 0.1248256098 0.008206829268 1.880790849e-38
0.09700926667 0.1150533667 0.012174 1.880790849e-38
0.09317042857 0.113040619 0.04096571429 1.880790849e-38
0.1391719118 0.1069688824 0.01918941176 1.880790849e-38
0.1329689016 0.1229425902 0.008262295082 1.880790849e-38
0.11093925 0.1257193333 0.020285 1.880790849e-38
0.1390588182 0.1131434773 0.004120909091 1.880790849e-38
0.1131251 0.1242175 0.000792 1.880790849e-38
0.1191646667 0.099423 0.02388 1.880790849e-38
0.1428717222 0.113006037 0.008244444444 1.880790849e-38
0.1309671935 0.098235 0.0162116129 1.880790849e-38
0.101163473 0.1309767568 0.04727513514 1.880790849e-38
0.1139775 0.1008454 0.006164 1.880790849e-38
0.142966383 0.112 0.008282553191 1.880790849e-38
0.1429613455 0.1089804545 0.008194909091 1.880790849e-38
0.1298215714 0.09940885714 0.02386285714 1.880790849e-38
0.1209757586 0.1099367931 0.03218482759 1.880790849e-38
0.1430001304 0.1080116667 0.008236521739 1.880790849e-38
0.116220625 0.1279668125 0.0151425 1.880790849e-38
0.1428785 0.1069640577 0.008243076923 1.880790849e-38
0.1080448 0.1251527455 0.02223709091 1.880790849e-38
0.1187335 0.098581 0.02064 1.880790849e-38
0.09295691071 0.1099644286 0.03612642857 1.880790849e-38
0.1389240714 0.1051314286 0.00816 1.880790849e-38
0.1128967857 0.09975359524 0.001002857143 1.880790849e-38
0.1369484359 0.1042026923 0.0082 1.880790849e-38
0.1299754118 0.1000207255 0.008197647059 1.880790849e-38
0.1247525 0.117411 0.03162 1.880790849e-38
0.109853386 0.1230122807 0.003282105263 1.880790849e-38
0.1208336875 0.09709334375 0.00816 1.880790849e-38
0.107417 0.102454 0.0126 1.880790849e-38
0.1161025385 0.09904605128 0.008255384615 1.880790849e-38
0.1220270909 0.118303 0.03054545455 1.880790849e-38
0.112118 0.1010191818 0.008247272727 1.880790849e-38
0.1261498333 0.1224403333 0.02656 1.880790849e-38
0.12513575 0.10460575 0.03162 1.880790849e-38
0.1081056923 0.1050183077 0.008261538462 1.880790849e-38
0.10200092 0.10707432 0.0004176 1.880790849e-38
0.1189595915 0.09700205634 0.01816394366 1.880790849e-38
0.105996 0.114951194 0.0422561194 1.880790849e-38
0.09794701754 0.1209206316 0.02829052632 1.880790849e-38
0.1428028462 0.1136873846 0.01102153846 1.880790849e-38
0.1209048333 0.1279630185 0.01124666667 1.880790849e-38
0.1170255484 0.09928745161 0.003116129032 1.880790849e-38
0.1089818333 0.1386013333 0.05101333333 1.880790849e-38
0.1334332222 0.1222425556 0.01004 1.880790849e-38
0.12214412 0.11990876 0.030864 1.880790849e-38
0.1050094 0.11312536 0.0080976 1.880790849e-38
0.1371439412 0.1051931765 0.00216 1.880790849e-38
0.1121111 0.1220033 0.008118 1.880790849e-38
0.1151373939 0.1239276364 0.0082 1.880790849e-38
0.140581 0.117144 0.02148 1.880790849e-38
0.1179160526 0.09708092982 0.01015789474 1.880790849e-38
0.1179950227 0.1259737045 0.00819 1.880790849e-38
0.0953835 0.11125275 0.01362 1.880790849e-38
0.1130518 0.1233770667 0.027408 1.880790849e-38
