# .PCD v0.7 - Point Cloud Data file format
VERSION 0.7
FIELDS x y z rgb
SIZE 4 4 4 4
TYPE F F F F
COUNT 1 1 1 1
WIDTH 1043
HEIGHT 1
VIEWPOINT 0 0 0 1 0 0 0
POINTS 1043
DATA ascii
0.1199765 0.1038531667 0.0993 1.880790849e-38
0.1488065 0.1413525 0.0695 1.880790849e-38
0.158061625 0.141352 0.067275 1.880790849e-38
0.16021975 0.13515775 0.06725 1.880790849e-38
0.15878 0.1182146667 0.067 1.880790849e-38
0.160219375 0.1180885 0.067275 1.880790849e-38
0.1441186667 0.1377126667 0.09126666667 1.880790849e-38
0.15878 0.1151766667 0.06723333333 1.880790849e-38
0.1602195 0.1148306667 0.06713333333 1.880790849e-38
0.15878 0.11289375 0.0671 1.880790849e-38
0.154485 0.137711 0.0736 1.880790849e-38
0.1602196667 0.1110803333 0.067 1.880790849e-38
0.1587802857 0.11697 0.06711428571 1.880790849e-38
0.16022 0.1187765 0.0669 1.880790849e-38
0.15878 0.1212397143 0.06717142857 1.880790849e-38
0.1587806667 0.121684 0.06726666667 1.880790849e-38
0.16022 0.1228875 0.06703333333 1.880790849e-38
0.15878 0.129017 0.0672 1.880790849e-38
0.16022 0.1302526667 0.067 1.880790849e-38
0.16022 0.13313125 0.0672 1.880790849e-38
0.16022 0.13606875 0.0669 1.880790849e-38
0.1586186429 0.1372949286 0.06717142857 1.880790849e-38
0.15814225 0.137712 0.0671 1.880790849e-38
0.136267 0.141352 0.0672 1.880790849e-38
0.1376495 0.137711 0.0669 1.880790849e-38
0.1399712 0.141352 0.06696 1.880790849e-38
0.16022 0.1302473333 0.0724 1.880790849e-38
0.145006 0.141352 0.06726666667 1.880790849e-38
0.14584525 0.141352 0.0671 1.880790849e-38
0.14682025 0.137711 0.0671 1.880790849e-38
0.12027575 0.10392775 0.0733 1.880790849e-38
0.1489562222 0.1413521111 0.06715555556 1.880790849e-38
0.1498547778 0.1377114444 0.06724444444 1.880790849e-38
0.15315225 0.14135225 0.06695 1.880790849e-38
0.1573395 0.141352 0.0669 1.880790849e-38
0.1550442857 0.1413521429 0.06728571429 1.880790849e-38
0.155999 0.1377114286 0.06717142857 1.880790849e-38
0.155013 0.137712 0.0668 1.880790849e-38
0.098994 0.1413524286 0.08505714286 1.880790849e-38
0.12765915 0.118967 0.0692 1.880790849e-38
0.14100875 0.141352 0.06725 1.880790849e-38
0.1427581667 0.141352 0.06716666667 1.880790849e-38
0.1219225 0.121222 0.06836666667 1.880790849e-38
0.1301506667 0.1413521667 0.06716666667 1.880790849e-38
0.120925 0.141352 0.0672 1.880790849e-38
0.119181 0.141352 0.06704 1.880790849e-38
0.120092 0.105025 0.09995 1.880790849e-38
0.115406 0.137712 0.0672 1.880790849e-38
0.1117543333 0.141351 0.067 1.880790849e-38
0.074322 0.1399328 0.0952 1.880790849e-38
0.1127293333 0.137712 0.067 1.880790849e-38
0.113207 0.106532 0.0788 1.880790849e-38
0.1022555 0.13039375 0.06705 1.880790849e-38
0.1068162222 0.1242513333 0.06724444444 1.880790849e-38
0.106395 0.124449 0.0668 1.880790849e-38
0.1122672 0.1257244 0.0672 1.880790849e-38
0.115976 0.11998 0.0792 1.880790849e-38
0.113 0.125383 0.0669 1.880790849e-38
0.1139873333 0.1209068333 0.06716666667 1.880790849e-38
0.111177 0.103461 0.0859 1.880790849e-38
0.123808 0.1203424286 0.06711428571 1.880790849e-38
0.1179682857 0.1190511429 0.06705714286 1.880790849e-38
0.116633 0.123689 0.0668 1.880790849e-38
0.1180493333 0.1230276667 0.0672 1.880790849e-38
0.1204233333 0.1128546667 0.06693333333 1.880790849e-38
0.1192596667 0.1017493333 0.067 1.880790849e-38
0.12278075 0.10929875 0.0671 1.880790849e-38
0.1198482 0.1221894 0.0672 1.880790849e-38
0.11935 0.122422 0.0668 1.880790849e-38
0.088823 0.13264075 0.0803 1.880790849e-38
0.09928 0.1277655 0.0672 1.880790849e-38
0.127664 0.1189558333 0.09116666667 1.880790849e-38
0.141442 0.141352 0.0816 1.880790849e-38
0.09909366667 0.1413518333 0.06726666667 1.880790849e-38
0.09814125 0.141351 0.0671 1.880790849e-38
0.08893333333 0.1325903333 0.06726666667 1.880790849e-38
0.08930416667 0.1324175 0.0671 1.880790849e-38
0.114327 0.141352 0.0748 1.880790849e-38
0.08683425 0.1413515 0.0671 1.880790849e-38
0.08502825 0.14135125 0.0671 1.880790849e-38
0.0804225 0.1365595 0.0669 1.880790849e-38
0.0776635 0.141351 0.0669 1.880790849e-38
0.07712925 0.141351 0.067275 1.880790849e-38
0.08986222222 0.1413512222 0.06724444444 1.880790849e-38
0.089356 0.141351 0.0668 1.880790849e-38
0.083201 0.13526425 0.0669 1.880790849e-38
0.10373975 0.12970075 0.06725 1.880790849e-38
0.1269263333 0.1377115 0.09426666667 1.880790849e-38
0.1032596667 0.1299243333 0.06693333333 1.880790849e-38
0.10017725 0.1413525 0.0913 1.880790849e-38
0.1008808 0.1270198 0.0672 1.880790849e-38
0.09805183333 0.1283391667 0.06716666667 1.880790849e-38
0.1252505 0.1413525 0.08625 1.880790849e-38
0.16022 0.1318835 0.0679 1.880790849e-38
0.0967315 0.128954 0.0671 1.880790849e-38
0.08601466667 0.1339516667 0.067 1.880790849e-38
0.09602457143 0.1413514286 0.06717142857 1.880790849e-38
0.1110892857 0.1413514286 0.06728571429 1.880790849e-38
0.10985675 0.137712 0.0671 1.880790849e-38
0.118795 0.1377114 0.0672 1.880790849e-38
0.1320275 0.137712 0.06685 1.880790849e-38
0.1281498571 0.1377114286 0.06711428571 1.880790849e-38
0.127137 0.1413516 0.0672 1.880790849e-38
0.1279406 0.141352 0.0672 1.880790849e-38
0.123981 0.141351875 0.067275 1.880790849e-38
0.1233985 0.141352 0.0669 1.880790849e-38
0.1200888333 0.137712 0.06713333333 1.880790849e-38
0.1058523333 0.141351 0.06686666667 1.880790849e-38
0.1027166667 0.1413513333 0.06726666667 1.880790849e-38
0.07441371429 0.1406501429 0.07011428571 1.880790849e-38
0.09671318182 0.1360785455 0.0672 1.880790849e-38
0.08171725 0.135955 0.07595 1.880790849e-38
0.1184462 0.0995428 0.0672 1.880790849e-38
0.1074230714 0.1048559286 0.06717142857 1.880790849e-38
0.07495305714 0.1410321143 0.07318857143 1.880790849e-38
0.075303875 0.13841925 0.067125 1.880790849e-38
0.0743208125 0.1399944375 0.0672125 1.880790849e-38
0.1591336 0.1418038667 0.0672 1.880790849e-38
0.1597486667 0.1416163333 0.06723333333 1.880790849e-38
0.1605742 0.1406954 0.0672 1.880790849e-38
0.160684 0.140216 0.0672 1.880790849e-38
0.133931 0.1377118571 0.08111428571 1.880790849e-38
0.160701 0.093167 0.0672 1.880790849e-38
0.158301 0.093167 0.0672 1.880790849e-38
0.1583308333 0.1372753333 0.06716666667 1.880790849e-38
0.098578 0.1372525455 0.06716363636 1.880790849e-38
0.09704664444 0.1369056889 0.06718222222 1.880790849e-38
0.09630643333 0.1359800667 0.06718 1.880790849e-38
0.15878 0.1237055 0.0745 1.880790849e-38
0.0962895 0.1341313846 0.06719230769 1.880790849e-38
0.16022 0.119978 0.0765 1.880790849e-38
0.09712241304 0.1331687826 0.06719565217 1.880790849e-38
0.1023215 0.1303635 0.07125 1.880790849e-38
0.1186772778 0.09970172222 0.06717777778 1.880790849e-38
0.1094232 0.1083812 0.0672 1.880790849e-38
0.1150374872 0.106092641 0.06718974359 1.880790849e-38
0.1346995 0.137711 0.0879 1.880790849e-38
0.1160502143 0.1061623214 0.06718571429 1.880790849e-38
0.1168289091 0.1062970909 0.06723636364 1.880790849e-38
0.112127 0.121775 0.076 1.880790849e-38
0.1177178235 0.1072191176 0.06716470588 1.880790849e-38
0.1210899767 0.1150232093 0.06724651163 1.880790849e-38
0.1208931944 0.1169718611 0.06722777778 1.880790849e-38
0.12007248 0.11777924 0.067168 1.880790849e-38
0.0755158 0.1387608 0.0672 1.880790849e-38
0.075342 0.1383998 0.0772 1.880790849e-38
0.07493777778 0.1409790222 0.06720888889 1.880790849e-38
0.1591077333 0.1414017333 0.0672 1.880790849e-38
0.1602589412 0.1400281765 0.06718823529 1.880790849e-38
0.160301 0.093567 0.0672 1.880790849e-38
0.1588107778 0.09364777778 0.0672 1.880790849e-38
0.1586911667 0.1376461667 0.06726666667 1.880790849e-38
0.09817255172 0.1375971034 0.06716551724 1.880790849e-38
0.16002275 0.14104495 0.06718 1.880790849e-38
0.120852 0.105164 0.0666 1.880790849e-38
0.16022 0.135432 0.0666 1.880790849e-38
0.16022 0.106348 0.0666 1.880790849e-38
0.160219 0.117537 0.0666 1.880790849e-38
0.15878 0.113393 0.0666 1.880790849e-38
0.15878 0.129215 0.0666 1.880790849e-38
0.157643 0.137712 0.0666 1.880790849e-38
0.097642 0.141351 0.0666 1.880790849e-38
0.082932 0.141351 0.0666 1.880790849e-38
0.084192 0.134802 0.0666 1.880790849e-38
0.124743 0.119653 0.1 1.880790849e-38
0.099848 0.127501 0.0666 1.880790849e-38
0.119446 0.102147 0.0666 1.880790849e-38
0.107382 0.123987 0.0666 1.880790849e-38
0.094522 0.141352 0.0666 1.880790849e-38
0.12447 0.141351 0.0666 1.880790849e-38
0.15878 0.1262215 0.0665 1.880790849e-38
0.1462845 0.141352 0.0665 1.880790849e-38
0.0903795 0.141351 0.0665 1.880790849e-38
0.10517 0.129034 0.0664 1.880790849e-38
0.1106025 0.107743 0.0665 1.880790849e-38
0.115873 0.120028 0.0665 1.880790849e-38
0.1039725 0.137712 0.0863 1.880790849e-38
0.124647 0.1133025 0.0665 1.880790849e-38
0.1234375 0.110707 0.0665 1.880790849e-38
0.116884 0.123572 0.0665 1.880790849e-38
0.11576725 0.12007825 0.0763 1.880790849e-38
0.113335 0.1252265 0.0665 1.880790849e-38
0.1078325 0.137712 0.0665 1.880790849e-38
0.12902 0.141352 0.0665 1.880790849e-38
0.1503655 0.1377115 0.0665 1.880790849e-38
0.135726 0.141352 0.0665 1.880790849e-38
0.123601 0.137712 0.0665 1.880790849e-38
0.160219 0.09564933333 0.0664 1.880790849e-38
0.1568393333 0.141352 0.0664 1.880790849e-38
0.16022 0.1192766667 0.0664 1.880790849e-38
0.1099815 0.1040185 0.0849 1.880790849e-38
0.16022 0.113071 0.0663 1.880790849e-38
0.1440085714 0.1377112857 0.09228571429 1.880790849e-38
0.158781 0.1146693333 0.0664 1.880790849e-38
0.122542 0.108213 0.0662 1.880790849e-38
0.1225686667 0.1088436667 0.0664 1.880790849e-38
0.116974 0.119514 0.0662 1.880790849e-38
0.1133605 0.1064585 0.0663 1.880790849e-38
0.1106906667 0.1036886667 0.0664 1.880790849e-38
0.111753 0.125964 0.0664 1.880790849e-38
0.1168835 0.141352 0.0663 1.880790849e-38
0.1432516667 0.141352 0.0664 1.880790849e-38
0.1277436667 0.137712 0.0664 1.880790849e-38
0.1228976667 0.141352 0.0664 1.880790849e-38
0.12595525 0.11934175 0.09415 1.880790849e-38
0.091655 0.1313216667 0.0664 1.880790849e-38
0.1139 0.141352 0.0742 1.880790849e-38
0.08734666667 0.1413513333 0.0664 1.880790849e-38
0.08876133333 0.1326706667 0.0664 1.880790849e-38
0.1602195 0.101951625 0.0663 1.880790849e-38
0.16022 0.11513375 0.0663 1.880790849e-38
0.15878025 0.12080825 0.0663 1.880790849e-38
0.15878 0.12217875 0.0663 1.880790849e-38
0.144736 0.1413525 0.0771 1.880790849e-38
0.160219 0.12974025 0.0663 1.880790849e-38
0.11226675 0.14135225 0.0663 1.880790849e-38
0.07432173333 0.1399271333 0.0922 1.880790849e-38
0.11324175 0.137711 0.0663 1.880790849e-38
0.12022625 0.10493425 0.09955 1.880790849e-38
0.114916 0.137712 0.0663 1.880790849e-38
0.1602194 0.124187 0.0672 1.880790849e-38
0.1299215 0.137712 0.0661 1.880790849e-38
0.1400678889 0.1413521111 0.06633333333 1.880790849e-38
0.091382 0.131449 0.066 1.880790849e-38
0.1001115 0.13139275 0.0663 1.880790849e-38
0.1299414 0.141352 0.0692 1.880790849e-38
0.12193 0.1212185 0.0661 1.880790849e-38
0.1049295 0.1377121 0.0862 1.880790849e-38
0.11214725 0.10702325 0.0663 1.880790849e-38
0.1133785 0.10243475 0.0662 1.880790849e-38
0.1146922 0.1205778 0.06624 1.880790849e-38
0.08600266667 0.1339568889 0.06628888889 1.880790849e-38
0.08885625 0.141351 0.0663 1.880790849e-38
0.111428 0.103345 0.0856 1.880790849e-38
0.1242144 0.1201914 0.0662 1.880790849e-38
0.160219 0.107926 0.0662 1.880790849e-38
0.1587803333 0.1057493333 0.06613333333 1.880790849e-38
0.1199678148 0.1178914444 0.08621481481 1.880790849e-38
0.1587806 0.098994 0.0662 1.880790849e-38
0.1602196667 0.09823866667 0.06616666667 1.880790849e-38
0.158780625 0.095934625 0.066225 1.880790849e-38
0.160219 0.0952835 0.0659 1.880790849e-38
0.15878 0.0968642 0.06604 1.880790849e-38
0.16021925 0.0987325 0.06625 1.880790849e-38
0.1602196667 0.101096 0.06626666667 1.880790849e-38
0.15878 0.1010656 0.0662 1.880790849e-38
0.16022 0.10274075 0.06595 1.880790849e-38
0.1157066667 0.1013486667 0.072 1.880790849e-38
0.1587801667 0.1081408333 0.06603333333 1.880790849e-38
0.1587803333 0.1112713333 0.066 1.880790849e-38
0.1540462 0.137711 0.0742 1.880790849e-38
0.1602195 0.1110116 0.0662 1.880790849e-38
0.116468 0.106525 0.0874 1.880790849e-38
0.1587801667 0.1140301667 0.06603333333 1.880790849e-38
0.16022 0.115634 0.0658 1.880790849e-38
0.160219 0.11717075 0.0661 1.880790849e-38
0.158781 0.1174095 0.0659 1.880790849e-38
0.1587801 0.1179304 0.06632 1.880790849e-38
0.09703175926 0.1331857407 0.06917777778 1.880790849e-38
0.1602193333 0.12011 0.06603333333 1.880790849e-38
0.1587805 0.120126 0.0658 1.880790849e-38
0.16021975 0.123857125 0.0663 1.880790849e-38
0.16021925 0.12331125 0.06615 1.880790849e-38
0.1585605 0.137348 0.066225 1.880790849e-38
0.140735 0.141352 0.0662 1.880790849e-38
0.138162 0.137711 0.0662 1.880790849e-38
0.082931 0.135389 0.0662 1.880790849e-38
0.091247 0.131514 0.0658 1.880790849e-38
0.0999166 0.1413518 0.0662 1.880790849e-38
0.105966 0.1413515455 0.06629090909 1.880790849e-38
0.105174 0.141351 0.066 1.880790849e-38
0.102088 0.137712 0.0662 1.880790849e-38
0.103022 0.1413516 0.0662 1.880790849e-38
0.142097 0.137712 0.0748 1.880790849e-38
0.1042025 0.141351 0.0659 1.880790849e-38
0.1177845 0.137712 0.0659 1.880790849e-38
0.1166405 0.137712 0.0659 1.880790849e-38
0.1288868333 0.1377115 0.06613333333 1.880790849e-38
0.1278864286 0.1413522857 0.06617142857 1.880790849e-38
0.1319218889 0.1377114444 0.06624444444 1.880790849e-38
0.1311376667 0.137712 0.06626666667 1.880790849e-38
0.1587806 0.1101522 0.0772 1.880790849e-38
0.1352263333 0.141352 0.066 1.880790849e-38
0.1360292 0.137712 0.0662 1.880790849e-38
0.1507313333 0.137711 0.066 1.880790849e-38
0.1587802 0.133158 0.0662 1.880790849e-38
0.0966625 0.128986 0.0695 1.880790849e-38
0.1602198 0.1321794 0.0662 1.880790849e-38
0.160219 0.129374 0.0658 1.880790849e-38
0.16022 0.1279618 0.0662 1.880790849e-38
0.1602194444 0.1360131111 0.06628888889 1.880790849e-38
0.15878 0.13619075 0.0661 1.880790849e-38
0.16022 0.1367725 0.066 1.880790849e-38
0.09099733333 0.1407323333 0.09993333333 1.880790849e-38
0.16022 0.13762 0.0658 1.880790849e-38
0.1569504444 0.1377114444 0.06615555556 1.880790849e-38
0.1559691429 0.1413522857 0.06611428571 1.880790849e-38
0.15975 0.118115 0.08586666667 1.880790849e-38
0.1539076667 0.1377113333 0.06623333333 1.880790849e-38
0.1527578333 0.1413525 0.06623333333 1.880790849e-38
0.147918 0.1377113333 0.06586666667 1.880790849e-38
0.148054 0.141352 0.0661 1.880790849e-38
0.1446656 0.1377116 0.0662 1.880790849e-38
0.1438274286 0.1413522857 0.06611428571 1.880790849e-38
0.14017175 0.137712 0.0661 1.880790849e-38
0.1269688333 0.141352 0.06613333333 1.880790849e-38
0.1229403333 0.1377118333 0.066 1.880790849e-38
0.11967925 0.13771175 0.06615 1.880790849e-38
0.1187206 0.1413518 0.0662 1.880790849e-38
0.114012 0.1377115 0.0658 1.880790849e-38
0.112633 0.141353 0.0658 1.880790849e-38
0.1229566 0.140976 0.09936 1.880790849e-38
0.1101816667 0.1377115 0.06616666667 1.880790849e-38
0.1098956667 0.1413513333 0.06613333333 1.880790849e-38
0.106156 0.137712 0.06596 1.880790849e-38
0.09074533333 0.141352 0.066 1.880790849e-38
0.15878 0.1116585 0.0835 1.880790849e-38
0.080171 0.141351 0.0661 1.880790849e-38
0.07813414286 0.1413174286 0.06628571429 1.880790849e-38
0.07989716667 0.1368045 0.06613333333 1.880790849e-38
0.0846708 0.1413514 0.0662 1.880790849e-38
0.086672 0.133644 0.0659 1.880790849e-38
0.1249188 0.1413526 0.0872 1.880790849e-38
0.16022 0.131605 0.0668 1.880790849e-38
0.09714366667 0.1287616667 0.06615555556 1.880790849e-38
0.09968266667 0.1315933333 0.06586666667 1.880790849e-38
0.09966466667 0.1413523333 0.092 1.880790849e-38
0.1008526 0.1270314 0.06612 1.880790849e-38
0.100247 0.1273147143 0.06628571429 1.880790849e-38
0.142287 0.14135225 0.09725 1.880790849e-38
0.108451 0.127504 0.0658 1.880790849e-38
0.1059858 0.1246392 0.0662 1.880790849e-38
0.127421 0.137711 0.0936 1.880790849e-38
0.1029374 0.1300756 0.0662 1.880790849e-38
0.1202245 0.1220135 0.06626666667 1.880790849e-38
0.1201237143 0.112211 0.06617142857 1.880790849e-38
0.10838975 0.1059735 0.066 1.880790849e-38
0.1085703333 0.1063613333 0.06613333333 1.880790849e-38
0.1129133333 0.1066656667 0.06586666667 1.880790849e-38
0.1131505 0.1025405 0.0662 1.880790849e-38
0.1432963333 0.137711 0.0804 1.880790849e-38
0.1169655714 0.1007614286 0.06622857143 1.880790849e-38
0.124569 0.119988 0.0658 1.880790849e-38
0.1172846667 0.1233843333 0.066 1.880790849e-38
0.115024 0.1204236667 0.06613333333 1.880790849e-38
0.089402 0.132372 0.0864 1.880790849e-38
0.1114125 0.126123 0.0659 1.880790849e-38
0.10780075 0.12379125 0.0661 1.880790849e-38
0.087144 0.133425 0.0658 1.880790849e-38
0.09695766667 0.1413515556 0.06615555556 1.880790849e-38
0.1074153333 0.1048709167 0.06625 1.880790849e-38
0.11915575 0.137712 0.092075 1.880790849e-38
0.1174062 0.107517 0.0662 1.880790849e-38
0.07499063636 0.1410405152 0.07824242424 1.880790849e-38
0.07531342857 0.1384144286 0.06628571429 1.880790849e-38
0.07432126667 0.1399451333 0.0662 1.880790849e-38
0.0759059 0.141814 0.0662 1.880790849e-38
0.1591029286 0.1418097143 0.06618571429 1.880790849e-38
0.1597096667 0.1416338889 0.0662 1.880790849e-38
0.160684 0.1402175 0.0662 1.880790849e-38
0.160701 0.093167 0.0662 1.880790849e-38
0.158301 0.093167 0.0662 1.880790849e-38
0.158301 0.137233 0.0662 1.880790849e-38
0.09857175 0.1372705 0.06616666667 1.880790849e-38
0.09705088679 0.136903 0.06622264151 1.880790849e-38
0.1076913333 0.1048053333 0.0662 1.880790849e-38
0.1093483333 0.108177 0.06606666667 1.880790849e-38
0.1099986 0.10806 0.06596 1.880790849e-38
0.1143652667 0.1062215333 0.06625333333 1.880790849e-38
0.119063 0.1413524 0.0952 1.880790849e-38
0.1168412727 0.1062801818 0.06616363636 1.880790849e-38
0.1211293478 0.1150339348 0.0661826087 1.880790849e-38
0.120889 0.1169134688 0.06619375 1.880790849e-38
0.07566888889 0.1387276667 0.06615555556 1.880790849e-38
0.075327 0.138407 0.07826666667 1.880790849e-38
0.07497230952 0.141012881 0.06618095238 1.880790849e-38
0.1590572 0.141385 0.0662 1.880790849e-38
0.1599912115 0.1410498077 0.06619230769 1.880790849e-38
0.1602680833 0.1401960833 0.06625 1.880790849e-38
0.1601156154 0.09376184615 0.06613846154 1.880790849e-38
0.1589624545 0.09368218182 0.06623636364 1.880790849e-38
0.09812465625 0.1375922188 0.06620625 1.880790849e-38
0.09577866667 0.1293988333 0.06816666667 1.880790849e-38
0.15878 0.131364 0.0656 1.880790849e-38
0.1301985 0.137712 0.0959 1.880790849e-38
0.16022 0.124319 0.0656 1.880790849e-38
0.15878 0.097298 0.0656 1.880790849e-38
0.1537793333 0.1377118333 0.07513333333 1.880790849e-38
0.160219 0.110593 0.0656 1.880790849e-38
0.16022 0.114983 0.0656 1.880790849e-38
0.111256 0.1034246667 0.0842 1.880790849e-38
0.12377 0.120359 0.0656 1.880790849e-38
0.083373 0.135183 0.0656 1.880790849e-38
0.132389 0.137711 0.0656 1.880790849e-38
0.126564 0.141352 0.0656 1.880790849e-38
0.086923 0.133528 0.0656 1.880790849e-38
0.099634 0.131615 0.0656 1.880790849e-38
0.127446 0.137713 0.0958 1.880790849e-38
0.1029835 0.130054 0.0656 1.880790849e-38
0.1602196667 0.1032676667 0.06553333333 1.880790849e-38
0.158781 0.1046935 0.0655 1.880790849e-38
0.1211414 0.1211706 0.0994 1.880790849e-38
0.1570873333 0.1377113333 0.06553333333 1.880790849e-38
0.117082 0.1194645 0.0655 1.880790849e-38
0.103226 0.1413513333 0.06553333333 1.880790849e-38
0.128007 0.137712 0.0654 1.880790849e-38
0.1290896667 0.1377113333 0.06553333333 1.880790849e-38
0.1283815 0.1413525 0.0655 1.880790849e-38
0.1398056667 0.137712 0.06553333333 1.880790849e-38
0.1056305 0.137712 0.0655 1.880790849e-38
0.1154015 0.1202465 0.0655 1.880790849e-38
0.088621 0.132736 0.0654 1.880790849e-38
0.097096 0.1413513333 0.06553333333 1.880790849e-38
0.1533006667 0.141352 0.0654 1.880790849e-38
0.1560372 0.141352 0.06544 1.880790849e-38
0.09710404762 0.1331846667 0.0802047619 1.880790849e-38
0.1602193333 0.1200196667 0.0654 1.880790849e-38
0.116209 0.1011146667 0.0714 1.880790849e-38
0.1587803333 0.1077263333 0.0654 1.880790849e-38
0.15878 0.1061083333 0.0654 1.880790849e-38
0.158781 0.121176 0.0653 1.880790849e-38
0.1587803333 0.1327766667 0.0654 1.880790849e-38
0.1602196667 0.137247 0.0654 1.880790849e-38
0.1460859 0.1377118 0.08908 1.880790849e-38
0.1257565 0.1195665 0.0653 1.880790849e-38
0.1082753333 0.1057296667 0.0654 1.880790849e-38
0.119797 0.1029004 0.06544 1.880790849e-38
0.113972 0.141352 0.0654 1.880790849e-38
0.1229718 0.1377114 0.06544 1.880790849e-38
0.1097733333 0.137712 0.0654 1.880790849e-38
0.09965366667 0.1275923333 0.0654 1.880790849e-38
0.098759 0.13202375 0.0894 1.880790849e-38
0.089357 0.132393 0.0652 1.880790849e-38
0.0759422 0.141818 0.0992 1.880790849e-38
0.1226443333 0.1208843333 0.0654 1.880790849e-38
0.1012876667 0.126829 0.0654 1.880790849e-38
0.1602196 0.1322988 0.0702 1.880790849e-38
0.09676 0.1289413333 0.0654 1.880790849e-38
0.16021975 0.09916325 0.0653 1.880790849e-38
0.116469 0.106525 0.0898 1.880790849e-38
0.15878 0.1139698 0.06536 1.880790849e-38
0.158781 0.121997 0.065 1.880790849e-38
0.160219 0.122796 0.0653 1.880790849e-38
0.16022 0.1279415 0.0651 1.880790849e-38
0.11921 0.141352 0.0653 1.880790849e-38
0.120186 0.13771125 0.0653 1.880790849e-38
0.1511345 0.1377115 0.0653 1.880790849e-38
0.147997375 0.1377115 0.0653 1.880790849e-38
0.1308865 0.137712 0.0653 1.880790849e-38
0.112882 0.1066817143 0.06534285714 1.880790849e-38
0.11678925 0.123615 0.0653 1.880790849e-38
0.1258305 0.1193985 0.0653 1.880790849e-38
0.1056645 0.1247885 0.0653 1.880790849e-38
0.112845 0.106698 0.0736 1.880790849e-38
0.1022546667 0.1303936667 0.0652 1.880790849e-38
0.1001415 0.13138 0.0653 1.880790849e-38
0.090284 0.13196 0.0653 1.880790849e-38
0.088004125 0.14135125 0.0653 1.880790849e-38
0.1124165 0.1028845 0.0859 1.880790849e-38
0.10482725 0.14135175 0.0653 1.880790849e-38
0.096453 0.136557 0.065 1.880790849e-38
0.09116216667 0.1413511667 0.0653 1.880790849e-38
0.16022 0.10684875 0.0661 1.880790849e-38
0.09396585714 0.1302437143 0.06534285714 1.880790849e-38
0.087258 0.1333713333 0.0652 1.880790849e-38
0.1081866667 0.1236121667 0.06523333333 1.880790849e-38
0.141889 0.141352 0.09815555556 1.880790849e-38
0.1079971429 0.127715 0.0652 1.880790849e-38
0.1087206667 0.1233623333 0.065 1.880790849e-38
0.15878 0.13342 0.0708 1.880790849e-38
0.1110906 0.122259 0.0652 1.880790849e-38
0.1220865 0.121145 0.0703 1.880790849e-38
0.13008325 0.141352 0.0651 1.880790849e-38
0.1287476667 0.1413513333 0.065 1.880790849e-38
0.134226 0.141352 0.065 1.880790849e-38
0.13178025 0.14135175 0.0651 1.880790849e-38
0.1327555 0.1377115 0.0651 1.880790849e-38
0.1587805 0.1200615 0.06526666667 1.880790849e-38
0.12006452 0.11779132 0.083136 1.880790849e-38
0.1587806667 0.09891 0.06513333333 1.880790849e-38
0.1587808 0.0951558 0.0652 1.880790849e-38
0.1602194444 0.09494211111 0.06524444444 1.880790849e-38
0.095145 0.141352 0.0838 1.880790849e-38
0.160219 0.0978768 0.0652 1.880790849e-38
0.1587803 0.0980435 0.06514 1.880790849e-38
0.16022 0.099663 0.0648 1.880790849e-38
0.160219 0.1009826 0.0652 1.880790849e-38
0.158781 0.1012213333 0.065 1.880790849e-38
0.1602195 0.1039981 0.06516 1.880790849e-38
0.134977 0.141352 0.07004 1.880790849e-38
0.1587806 0.1102312 0.0652 1.880790849e-38
0.1097486667 0.1268993333 0.092 1.880790849e-38
0.160219 0.1102265 0.0651 1.880790849e-38
0.16021975 0.1078485 0.0651 1.880790849e-38
0.1587805 0.10698425 0.0649 1.880790849e-38
0.16022 0.105578 0.0648 1.880790849e-38
0.158780125 0.110779875 0.065125 1.880790849e-38
0.1602198 0.1119912 0.0652 1.880790849e-38
0.110199 0.103918 0.0806 1.880790849e-38
0.160219 0.1132593333 0.065 1.880790849e-38
0.15878 0.113498 0.0648 1.880790849e-38
0.16021975 0.11609075 0.0652 1.880790849e-38
0.15878 0.1168968 0.0652 1.880790849e-38
0.15878 0.11489375 0.0651 1.880790849e-38
0.1450594 0.137713 0.0922 1.880790849e-38
0.1602195 0.1167338333 0.06513333333 1.880790849e-38
0.160219 0.12243 0.0648 1.880790849e-38
0.1587805 0.1261415 0.0651 1.880790849e-38
0.15614225 0.137712 0.0651 1.880790849e-38
0.0850294 0.141352 0.0752 1.880790849e-38
0.153667 0.141352 0.0649 1.880790849e-38
0.155339 0.141352 0.0649 1.880790849e-38
0.1566996667 0.141352 0.065 1.880790849e-38
0.1576756667 0.137711 0.065 1.880790849e-38
0.158529 0.137461 0.0652 1.880790849e-38
0.1587805 0.133861 0.0649 1.880790849e-38
0.1587805 0.12924675 0.0651 1.880790849e-38
0.15878 0.1277213333 0.065 1.880790849e-38
0.1602195455 0.1289313636 0.06516363636 1.880790849e-38
0.12482825 0.141352 0.0853 1.880790849e-38
0.1602192 0.1320408 0.0652 1.880790849e-38
0.1587803333 0.1320817778 0.06515555556 1.880790849e-38
0.160219 0.1351468 0.0652 1.880790849e-38
0.15878 0.135312 0.0649 1.880790849e-38
0.15878 0.135883625 0.065275 1.880790849e-38
0.09104333333 0.1411166667 0.0993 1.880790849e-38
0.1602195714 0.1380534286 0.06511428571 1.880790849e-38
0.1441302 0.141352 0.0652 1.880790849e-38
0.1358615 0.1377115 0.0651 1.880790849e-38
0.15878 0.1097506667 0.066 1.880790849e-38
0.1347877143 0.141352 0.06528571429 1.880790849e-38
0.135966 0.141352 0.0648 1.880790849e-38
0.1498225 0.137712 0.0649 1.880790849e-38
0.14768525 0.14135225 0.06505 1.880790849e-38
0.143214 0.137712 0.0649 1.880790849e-38
0.1429116 0.141352 0.0652 1.880790849e-38
0.13796 0.137712 0.0648 1.880790849e-38
0.124375 0.141352 0.0648 1.880790849e-38
0.09632165385 0.1339850385 0.09018461538 1.880790849e-38
0.15878 0.123679 0.0648 1.880790849e-38
0.126305 0.1377115 0.06513333333 1.880790849e-38
0.1180586 0.137712 0.0652 1.880790849e-38
0.117255 0.1413513333 0.065 1.880790849e-38
0.0743218 0.1399256667 0.0892 1.880790849e-38
0.113416 0.137712 0.0648 1.880790849e-38
0.1109412 0.1377118 0.0652 1.880790849e-38
0.1099662 0.1413514 0.0652 1.880790849e-38
0.088518 0.141351 0.0648 1.880790849e-38
0.1152795 0.1203055 0.0671 1.880790849e-38
0.09798975 0.12836675 0.0651 1.880790849e-38
0.088508 0.132789 0.0824 1.880790849e-38
0.099312 0.127751 0.0649 1.880790849e-38
0.101982 0.130521 0.0648 1.880790849e-38
0.1017065 0.1266335 0.0649 1.880790849e-38
0.1051478 0.1290442 0.0652 1.880790849e-38
0.10385825 0.12964625 0.0651 1.880790849e-38
0.106486 0.124405 0.0648 1.880790849e-38
0.1186496 0.1090503 0.06512 1.880790849e-38
0.110831 0.103623 0.0651 1.880790849e-38
0.105105 0.1377116667 0.08553333333 1.880790849e-38
0.112406 0.106904 0.0649 1.880790849e-38
0.113402 0.10644 0.0648 1.880790849e-38
0.114632 0.10185 0.0648 1.880790849e-38
0.140998 0.1377115 0.08325 1.880790849e-38
0.122427 0.108539 0.0648 1.880790849e-38
0.1219344 0.1212156 0.06496 1.880790849e-38
0.1193135 0.11842325 0.06515 1.880790849e-38
0.1194095 0.122393 0.0649 1.880790849e-38
0.116741 0.119624 0.065 1.880790849e-38
0.114674 0.124602 0.0649 1.880790849e-38
0.116448 0.123774 0.0648 1.880790849e-38
0.1139838 0.1209096 0.0652 1.880790849e-38
0.1109571 0.1263351 0.06512 1.880790849e-38
0.090858 0.1316931 0.06512 1.880790849e-38
0.10030175 0.14135125 0.06515 1.880790849e-38
0.1039274 0.1413516 0.06504 1.880790849e-38
0.1049784444 0.1377116667 0.06515555556 1.880790849e-38
0.10847 0.123481 0.0656 1.880790849e-38
0.1068602 0.1413518 0.0652 1.880790849e-38
0.1078358 0.1377114 0.0652 1.880790849e-38
0.113084 0.1413516364 0.06510909091 1.880790849e-38
0.1139887778 0.1377118889 0.06524444444 1.880790849e-38
0.07792275 0.1377245 0.0809 1.880790849e-38
0.1150515 0.137712 0.0649 1.880790849e-38
0.1017706667 0.137711 0.065 1.880790849e-38
0.0898765 0.141352 0.0649 1.880790849e-38
0.094657 0.141351 0.0649 1.880790849e-38
0.078013 0.141351 0.0648 1.880790849e-38
0.0832135 0.141351 0.0649 1.880790849e-38
0.083792 0.1349875 0.0651 1.880790849e-38
0.09191571429 0.141351 0.0652 1.880790849e-38
0.093457 0.130481 0.0648 1.880790849e-38
0.07899009091 0.1413510909 0.06514545455 1.880790849e-38
0.0800555 0.1367301667 0.06526666667 1.880790849e-38
0.1136463333 0.1413523333 0.07313333333 1.880790849e-38
0.087356 0.141351 0.0648 1.880790849e-38
0.0851192 0.1413518 0.0652 1.880790849e-38
0.09614125 0.141351 0.0651 1.880790849e-38
0.09768933333 0.1413516667 0.065 1.880790849e-38
0.09672 0.1360678095 0.06521904762 1.880790849e-38
0.12765915 0.1189711 0.0652 1.880790849e-38
0.1074 0.1048976 0.0652 1.880790849e-38
0.1188033333 0.137713 0.0914 1.880790849e-38
0.1174072 0.1075188 0.0652 1.880790849e-38
0.07497278049 0.1410297317 0.07916585366 1.880790849e-38
0.07529644444 0.138423 0.06515555556 1.880790849e-38
0.07431813333 0.1399828 0.0652 1.880790849e-38
0.1591500667 0.1418005333 0.0652 1.880790849e-38
0.1597635 0.1416088333 0.0652 1.880790849e-38
0.160575 0.1406934 0.0652 1.880790849e-38
0.1606837 0.1402189 0.0652 1.880790849e-38
0.1208703235 0.1169443529 0.08318823529 1.880790849e-38
0.158301 0.093167 0.0652 1.880790849e-38
0.158301 0.137233 0.0652 1.880790849e-38
0.09859109091 0.1372529091 0.06523636364 1.880790849e-38
0.09700431111 0.1368522444 0.06521777778 1.880790849e-38
0.09628119355 0.1359671935 0.06516774194 1.880790849e-38
0.09705941818 0.1331762 0.06519636364 1.880790849e-38
0.082011 0.1358186 0.0862 1.880790849e-38
0.1182601429 0.09995042857 0.06508571429 1.880790849e-38
0.1076825882 0.1048174118 0.06516470588 1.880790849e-38
0.109362 0.1081794375 0.0651875 1.880790849e-38
0.1150832 0.1061162571 0.06518285714 1.880790849e-38
0.1352562 0.1377114 0.0742 1.880790849e-38
0.1160706579 0.1061123684 0.06523684211 1.880790849e-38
0.1187633333 0.141352 0.09626666667 1.880790849e-38
0.1168484667 0.1062650667 0.06514666667 1.880790849e-38
0.1211115435 0.1150214783 0.06519130435 1.880790849e-38
0.120912 0.1169222 0.06515333333 1.880790849e-38
0.1587805 0.106992 0.0309 1.880790849e-38
0.1074165 0.127987 0.0732 1.880790849e-38
0.15878 0.1102968 0.0312 1.880790849e-38
0.1368528 0.141352 0.0412 1.880790849e-38
0.1546865 0.137711 0.0309 1.880790849e-38
0.1341963333 0.141352 0.048 1.880790849e-38
0.1106065 0.107741 0.0639 1.880790849e-38
0.0748029 0.139925775 0.036215 1.880790849e-38
0.089677 0.1322445 0.0635 1.880790849e-38
0.131037 0.137712 0.07013333333 1.880790849e-38
0.1587804444 0.1230493333 0.03122222222 1.880790849e-38
0.1197674 0.111333 0.09004 1.880790849e-38
0.1200206667 0.1119916667 0.025 1.880790849e-38
0.158301 0.137233 0.0192 1.880790849e-38
0.110548 0.106692 0.0604 1.880790849e-38
0.1587802 0.1168542 0.0312 1.880790849e-38
0.1602192857 0.096029 0.04717142857 1.880790849e-38
0.1602196667 0.1161848889 0.0312 1.880790849e-38
0.101689 0.130657 0.0474 1.880790849e-38
0.158781 0.1042836667 0.031 1.880790849e-38
0.123255 0.109737 0.0308 1.880790849e-38
0.1180735 0.10781175 0.0961 1.880790849e-38
0.1184846667 0.1086966667 0.03113333333 1.880790849e-38
0.1150031111 0.1053622222 0.0004888888889 1.880790849e-38
0.1150307297 0.1060937838 0.06319459459 1.880790849e-38
0.1131575 0.102538 0.0152 1.880790849e-38
0.106900125 0.13771225 0.003125 1.880790849e-38
0.136077 0.141353 0.0309 1.880790849e-38
0.09671491304 0.1339004783 0.0292 1.880790849e-38
0.1590824 0.1413844 0.02218 1.880790849e-38
0.15878 0.0956375 0.0589 1.880790849e-38
0.148968 0.1377115 0.0308 1.880790849e-38
0.1205478 0.1176512 0.01012 1.880790849e-38
0.1210960571 0.1150007143 0.09217714286 1.880790849e-38
0.151804875 0.13771175 0.031175 1.880790849e-38
0.122652 0.1413525 0.0309 1.880790849e-38
0.1552805 0.141352 0.0309 1.880790849e-38
0.1216116667 0.106793 0.028 1.880790849e-38
0.11931275 0.10186075 0.0881 1.880790849e-38
0.1110343333 0.137712 0.03313333333 1.880790849e-38
0.1567433333 0.141352 0.031 1.880790849e-38
0.1076955556 0.1048011111 0.01123333333 1.880790849e-38
0.15878025 0.129204 0.0311 1.880790849e-38
0.16022 0.133664 0.0308 1.880790849e-38
0.1602192 0.1351032 0.0312 1.880790849e-38
0.1099682857 0.1262778571 0.0604 1.880790849e-38
0.16021975 0.137998875 0.031125 1.880790849e-38
0.150872625 0.141352125 0.077275 1.880790849e-38
0.0828215 0.1413516667 0.04723333333 1.880790849e-38
0.13876675 0.1413525 0.0301 1.880790849e-38
0.1183995556 0.09976144444 0.01224444444 1.880790849e-38
0.1139897778 0.1377115556 0.08224444444 1.880790849e-38
0.124213 0.141352 0.0308 1.880790849e-38
0.112048 0.1377115714 0.02934285714 1.880790849e-38
0.16022 0.1031563333 0.04436666667 1.880790849e-38
0.07432166667 0.139937 0.0512 1.880790849e-38
0.1178393333 0.141352 0.0274 1.880790849e-38
0.13693075 0.137712 0.07545 1.880790849e-38
0.1074025 0.1049063 0.0192 1.880790849e-38
0.16021975 0.10771225 0.04415 1.880790849e-38
0.1141353333 0.1377116667 0.06453333333 1.880790849e-38
0.0992545 0.1317945 0.0311 1.880790849e-38
0.100609 0.131163 0.0308 1.880790849e-38
0.1051088 0.1290638 0.0312 1.880790849e-38
0.1041135 0.1380246667 0.09936666667 1.880790849e-38
0.10795075 0.12773875 0.031175 1.880790849e-38
0.1168878667 0.1063094 0.03826666667 1.880790849e-38
0.1208695 0.105198 0.0311 1.880790849e-38
0.1281383333 0.141352 0.008 1.880790849e-38
0.111132 0.103481 0.0308 1.880790849e-38
0.113367 0.106456 0.0309 1.880790849e-38
0.160219 0.1352825 0.0569 1.880790849e-38
0.1219025 0.1074125 0.0939 1.880790849e-38
0.1221574167 0.1079620833 0.03116666667 1.880790849e-38
0.13378 0.141352 0.0303 1.880790849e-38
0.103118 0.125975 0.0123 1.880790849e-38
0.153169625 0.137711875 0.04515 1.880790849e-38
0.07571122222 0.1387078889 0.03624444444 1.880790849e-38
0.101764 0.1265208 0.0492 1.880790849e-38
0.121063 0.137712 0.0671 1.880790849e-38
0.1121518 0.1217628 0.0312 1.880790849e-38
0.1010866667 0.137712 0.03126666667 1.880790849e-38
0.113997 0.137712 0.0869 1.880790849e-38
0.124022 0.1413523333 0.02036666667 1.880790849e-38
0.0900915 0.141117 0.00105 1.880790849e-38
0.1120815455 0.1377115455 0.03818181818 1.880790849e-38
0.1049949 0.1377116 0.03118 1.880790849e-38
0.15878 0.1081373333 0.0464 1.880790849e-38
0.1069028 0.1413528 0.0312 1.880790849e-38
0.1084325 0.123498 0.0315 1.880790849e-38
0.1092145 0.137712 0.0309 1.880790849e-38
0.1367855 0.141352 0.0651 1.880790849e-38
0.1438435 0.141352 0.0295 1.880790849e-38
0.14989325 0.141352 0.08295 1.880790849e-38
0.1500115 0.137712 0.0183 1.880790849e-38
0.15878 0.0950656 0.0722 1.880790849e-38
0.107093 0.123844 0.0106 1.880790849e-38
0.158781 0.109462 0.0508 1.880790849e-38
0.103024 0.137712 0.0308 1.880790849e-38
0.098916625 0.1279345 0.017275 1.880790849e-38
0.0838415 0.134964 0.0311 1.880790849e-38
0.124111 0.1377115 0.0045 1.880790849e-38
0.091814625 0.141352 0.031175 1.880790849e-38
0.1272126667 0.137711 0.0854 1.880790849e-38
0.1176698462 0.1071425385 0.02324615385 1.880790849e-38
0.15878 0.10092275 0.0621 1.880790849e-38
0.093417 0.1305 0.0308 1.880790849e-38
0.109732 0.1080115385 0.09927692308 1.880790849e-38
0.0851618 0.141353 0.0312 1.880790849e-38
0.1206765 0.1133955 0.0905 1.880790849e-38
0.085021 0.1344156667 0.0694 1.880790849e-38
0.1211936667 0.1160133571 0.02521904762 1.880790849e-38
0.12765595 0.1189717 0.0312 1.880790849e-38
0.1342056 0.1377112 0.05036 1.880790849e-38
0.11741 0.1075248 0.0312 1.880790849e-38
0.160219625 0.131011125 0.017175 1.880790849e-38
0.074448 0.139316 0.0312 1.880790849e-38
0.1263923333 0.117043 0.079 1.880790849e-38
0.075321 0.1416475 0.0312 1.880790849e-38
0.1097426429 0.1081769286 0.06514285714 1.880790849e-38
0.13101 0.1413525 0.0275 1.880790849e-38
0.07593315 0.1413801 0.0982 1.880790849e-38
0.0759425 0.141818 0.0312 1.880790849e-38
0.0753208 0.1416474 0.0472 1.880790849e-38
0.09626752778 0.1359898056 0.09418888889 1.880790849e-38
0.159742 0.141623 0.0312 1.880790849e-38
0.11296875 0.10262675 0.0061 1.880790849e-38
0.1333863333 0.1377116667 0.01713333333 1.880790849e-38
0.1248663333 0.1137716667 0.021 1.880790849e-38
0.106427 0.124432 0.0338 1.880790849e-38
0.0988365 0.1376725 0.0942 1.880790849e-38
0.098616875 0.137261875 0.0312 1.880790849e-38
0.09800202222 0.1372431333 0.03118222222 1.880790849e-38
0.09703966667 0.1368893333 0.0312047619 1.880790849e-38
0.09625984615 0.1349927949 0.03121538462 1.880790849e-38
0.1587806667 0.104928 0.05726666667 1.880790849e-38
0.158781 0.0969752 0.0592 1.880790849e-38
0.1188003333 0.1007563333 0.0964 1.880790849e-38
0.1186966667 0.09973728571 0.03119047619 1.880790849e-38
0.1231808 0.109539 0.0022 1.880790849e-38
0.123474 0.110788 0.0636 1.880790849e-38
0.1432296667 0.1413526667 0.0834 1.880790849e-38
0.1170928158 0.1068482632 0.03118421053 1.880790849e-38
0.1269308333 0.1377111667 0.07726666667 1.880790849e-38
0.1176819167 0.107244 0.03118333333 1.880790849e-38
0.100317 0.131297 0.0762 1.880790849e-38
0.099735 0.13157 0.0108 1.880790849e-38
0.1205948333 0.117638 0.09626666667 1.880790849e-38
0.1208859677 0.1169398387 0.03117419355 1.880790849e-38
0.09111842857 0.1413522857 0.02717142857 1.880790849e-38
0.1233585 0.120552 0.0032 1.880790849e-38
0.15878 0.115423 0.0476 1.880790849e-38
0.16021925 0.0972275 0.0431 1.880790849e-38
0.158701 0.137633 0.0312 1.880790849e-38
0.12006545 0.1178154 0.07919 1.880790849e-38
0.158781 0.098671 0.06126666667 1.880790849e-38
0.15878 0.115452 0.0306 1.880790849e-38
0.1088376667 0.1377118333 0.08926666667 1.880790849e-38
0.109148 0.141352 0.0168 1.880790849e-38
0.101642 0.1252206667 0.0542 1.880790849e-38
0.111414 0.107366 0.0306 1.880790849e-38
0.11972 0.11023 0.0008 1.880790849e-38
0.1181194 0.1079138 0.0932 1.880790849e-38
0.118434 0.10859 0.0306 1.880790849e-38
0.1148416667 0.1056506667 0.0606 1.880790849e-38
0.1193024 0.101837 0.08944 1.880790849e-38
0.111424 0.137712 0.0306 1.880790849e-38
0.1217822 0.107158 0.02744 1.880790849e-38
0.08836 0.132858 0.0149 1.880790849e-38
0.09756 0.128567 0.0444 1.880790849e-38
0.15878075 0.0952395 0.0441 1.880790849e-38
0.094964 0.1413522 0.07304 1.880790849e-38
0.160219 0.0977505 0.0523 1.880790849e-38
0.112654 0.121529 0.0306 1.880790849e-38
0.16022 0.0949655 0.0305 1.880790849e-38
0.15878 0.1160266 0.04628 1.880790849e-38
0.1099546 0.1040302 0.02804 1.880790849e-38
0.07479472727 0.1398873333 0.0352 1.880790849e-38
0.121793 0.1071792 0.09536 1.880790849e-38
0.1221086667 0.1078556667 0.03053333333 1.880790849e-38
0.1031972 0.125939 0.0112 1.880790849e-38
0.133611 0.141352 0.0329 1.880790849e-38
0.088393 0.132842 0.0596 1.880790849e-38
0.1113825 0.1033645 0.0305 1.880790849e-38
0.081639 0.1359925 0.0305 1.880790849e-38
0.097428 0.141352 0.0696 1.880790849e-38
0.09673165 0.13606335 0.0072 1.880790849e-38
0.107415 0.141352 0.0305 1.880790849e-38
0.16021975 0.13795125 0.0305 1.880790849e-38
0.1513685 0.141352 0.0779 1.880790849e-38
0.08335266667 0.141351 0.0464 1.880790849e-38
0.135177 0.141352 0.0305 1.880790849e-38
0.1021733333 0.1264156667 0.0304 1.880790849e-38
0.160219 0.104642 0.0405 1.880790849e-38
0.0757031 0.1387168 0.05616 1.880790849e-38
0.090684 0.1413525 0.0279 1.880790849e-38
0.1228624 0.1207834 0.0042 1.880790849e-38
0.1587808 0.1152104 0.04612 1.880790849e-38
0.11611225 0.14135125 0.0681 1.880790849e-38
0.148024 0.137712 0.0303 1.880790849e-38
0.123713 0.1112995 0.0209 1.880790849e-38
0.1587802 0.1318642 0.03036 1.880790849e-38
0.1571948333 0.1413525 0.03023333333 1.880790849e-38
0.1079493571 0.104933 0.0004714285714 1.880790849e-38
0.1271725 0.137711 0.0303 1.880790849e-38
0.160219 0.124606 0.0805 1.880790849e-38
0.09429066667 0.1413513333 0.0654 1.880790849e-38
0.160032 0.1261956 0.01496 1.880790849e-38
0.08262 0.135534 0.0962 1.880790849e-38
0.083423 0.13516 0.0316 1.880790849e-38
0.112677 0.102763 0.0184 1.880790849e-38
0.104007 0.1383025 0.0999 1.880790849e-38
0.1080188 0.1277072 0.03036 1.880790849e-38
0.1171675 0.10687325 0.09985 1.880790849e-38
0.11678765 0.10625165 0.03518 1.880790849e-38
0.1011145 0.137712 0.0301 1.880790849e-38
0.1309271667 0.1413521667 0.02403333333 1.880790849e-38
0.111672 0.137712 0.0376 1.880790849e-38
0.160219 0.11020475 0.0481 1.880790849e-38
0.1538678 0.141352 0.0222 1.880790849e-38
0.1231778889 0.1098072222 0.005088888889 1.880790849e-38
0.16022 0.1172355 0.0345 1.880790849e-38
0.104377 0.1253895 0.0299 1.880790849e-38
0.1029421 0.1300751 0.0322 1.880790849e-38
0.1191161429 0.1100504286 0.03022857143 1.880790849e-38
0.11292725 0.10304275 0.0395 1.880790849e-38
0.1212223333 0.1059536667 0.09553333333 1.880790849e-38
0.1206701667 0.1047691667 0.0302 1.880790849e-38
0.123353 0.110525 0.0298 1.880790849e-38
0.1602193333 0.1221243333 0.0504 1.880790849e-38
0.1122782 0.1257192 0.0842 1.880790849e-38
0.1189123333 0.1186116667 0.03 1.880790849e-38
0.1070845 0.104859 0.0414 1.880790849e-38
0.1489628333 0.137711 0.03026666667 1.880790849e-38
0.109875 0.141351 0.04913333333 1.880790849e-38
0.1460767143 0.141352 0.03022857143 1.880790849e-38
0.1373095 0.141352 0.0299 1.880790849e-38
0.109934 0.104041 0.0934 1.880790849e-38
0.1602195556 0.1128524444 0.02615555556 1.880790849e-38
0.1587805 0.110168 0.05226666667 1.880790849e-38
0.1357343333 0.1413526667 0.03 1.880790849e-38
0.1587802 0.094744 0.0302 1.880790849e-38
0.0949895 0.141352 0.0795 1.880790849e-38
0.16022 0.098049 0.0421 1.880790849e-38
0.1587801111 0.1231081111 0.07815555556 1.880790849e-38
0.1309903333 0.137712 0.05313333333 1.880790849e-38
0.16021925 0.10324 0.0301 1.880790849e-38
0.123986 0.141352125 0.033275 1.880790849e-38
0.16021925 0.10627575 0.03015 1.880790849e-38
0.1232446667 0.1102933333 0.0754 1.880790849e-38
0.12281225 0.10936425 0.01215 1.880790849e-38
0.158780375 0.106940125 0.030275 1.880790849e-38
0.109357 0.137712 0.0268 1.880790849e-38
0.1501005 0.13771175 0.03795 1.880790849e-38
0.16021925 0.0997475 0.0423 1.880790849e-38
0.10180675 0.130603 0.0603 1.880790849e-38
0.16021975 0.1129475 0.030275 1.880790849e-38
0.14478 0.141352 0.0204 1.880790849e-38
0.11112 0.105463 0.0602 1.880790849e-38
0.1587801667 0.1287361667 0.0302 1.880790849e-38
0.1587805 0.124374 0.0839 1.880790849e-38
0.15878 0.131358 0.0298 1.880790849e-38
0.15471425 0.141352 0.03025 1.880790849e-38
0.08820366667 0.13293 0.0174 1.880790849e-38
0.11067225 0.13771175 0.03225 1.880790849e-38
0.0908796 0.1316834 0.05696 1.880790849e-38
0.123031 0.110968 0.06036 1.880790849e-38
0.1509408 0.137712 0.0302 1.880790849e-38
0.1233005 0.1413525 0.0385 1.880790849e-38
0.127539 0.137711 0.0298 1.880790849e-38
0.142312 0.13771175 0.03015 1.880790849e-38
0.1291122857 0.141352 0.03022857143 1.880790849e-38
0.1330431429 0.1377127143 0.09711428571 1.880790849e-38
0.1329961667 0.1413521667 0.02993333333 1.880790849e-38
0.1147415 0.1245705 0.0029 1.880790849e-38
0.1296996667 0.1413523333 0.034 1.880790849e-38
0.1180004 0.141352 0.0912 1.880790849e-38
0.1179278 0.137711 0.0302 1.880790849e-38
0.112668 0.125506 0.0008 1.880790849e-38
0.1074302667 0.1048291333 0.0242 1.880790849e-38
0.1181465 0.1413521667 0.03226666667 1.880790849e-38
0.1602194 0.1080824 0.0452 1.880790849e-38
0.1056513333 0.1377113333 0.03 1.880790849e-38
0.1046753333 0.141352 0.03 1.880790849e-38
0.0901144 0.1320396 0.0302 1.880790849e-38
0.10028225 0.12729775 0.02415 1.880790849e-38
0.1413193333 0.141352 0.0054 1.880790849e-38
0.08428733333 0.1347566667 0.03023333333 1.880790849e-38
0.12385725 0.1379465 0.00095 1.880790849e-38
0.1231481429 0.110085 0.03017142857 1.880790849e-38
0.086928 0.133527 0.0128 1.880790849e-38
0.118951 0.1185915 0.0655 1.880790849e-38
0.07552616667 0.1387713333 0.03713333333 1.880790849e-38
0.101778 0.12651475 0.0502 1.880790849e-38
0.1602188889 0.1039154444 0.05624444444 1.880790849e-38
0.11262 0.1215445 0.0929 1.880790849e-38
0.113133125 0.121305875 0.0301 1.880790849e-38
0.1100185714 0.1227578571 0.02994285714 1.880790849e-38
0.1029395 0.1300741 0.0492 1.880790849e-38
0.16022 0.1346236667 0.06426666667 1.880790849e-38
0.14998175 0.141352 0.0553 1.880790849e-38
0.154902 0.1413523333 0.0251 1.880790849e-38
0.119432 0.102114 0.09 1.880790849e-38
0.1109848 0.137711 0.0312 1.880790849e-38
0.103917 0.125603 0.0665 1.880790849e-38
0.1218665 0.107336 0.0259 1.880790849e-38
0.08789814286 0.1330734286 0.0142 1.880790849e-38
0.1011728571 0.1309001429 0.03011428571 1.880790849e-38
0.09297514286 0.1307057143 0.03022857143 1.880790849e-38
0.095544 0.1413525 0.0302 1.880790849e-38
0.158781 0.111479 0.0578 1.880790849e-38
0.1587806 0.094703 0.0432 1.880790849e-38
0.0950065 0.1413521667 0.07236666667 1.880790849e-38
0.160219 0.098252 0.0532 1.880790849e-38
0.1033685 0.141352 0.0299 1.880790849e-38
0.1016435 0.141352 0.0299 1.880790849e-38
0.1026185 0.1377115 0.0299 1.880790849e-38
0.152222375 0.14009025 0.086 1.880790849e-38
0.09932033333 0.1277476667 0.014 1.880790849e-38
0.10417175 0.137712 0.0301 1.880790849e-38
0.1143274375 0.106169 0.0212375 1.880790849e-38
0.110848 0.1413524 0.03012 1.880790849e-38
0.0982556 0.1413526 0.0302 1.880790849e-38
0.09670708333 0.1361210833 0.03026666667 1.880790849e-38
0.0817852 0.1359238 0.0392 1.880790849e-38
0.11741 0.107525 0.0302 1.880790849e-38
0.074448 0.139316 0.0302 1.880790849e-38
0.075321 0.1416475 0.0302 1.880790849e-38
0.1264525 0.117172 0.0685 1.880790849e-38
0.0753155 0.1416452 0.0502 1.880790849e-38
0.106416 0.1377115 0.0035 1.880790849e-38
0.09763 0.1328328182 0.09818181818 1.880790849e-38
0.132642 0.137711 0.0398 1.880790849e-38
0.09863516667 0.1376458333 0.09513333333 1.880790849e-38
0.09860466667 0.1372847778 0.03024444444 1.880790849e-38
0.09795219149 0.1372341702 0.03025531915 1.880790849e-38
0.09626173171 0.1351070488 0.03024878049 1.880790849e-38
0.158781 0.104567 0.0526 1.880790849e-38
0.1189538 0.101144 0.09312 1.880790849e-38
0.1220215 0.1377118333 0.08826666667 1.880790849e-38
0.11868 0.09980536 0.030184 1.880790849e-38
0.1142330588 0.1062352941 0.03016470588 1.880790849e-38
0.1205756667 0.117623 0.0932 1.880790849e-38
0.1209331395 0.116927186 0.03018139535 1.880790849e-38
0.089638 0.141352 0.0436 1.880790849e-38
0.079796 0.141353 0.0852 1.880790849e-38
0.15878 0.1183496667 0.029 1.880790849e-38
0.12028625 0.117321375 0.087225 1.880790849e-38
0.12002028 0.1177828 0.024176 1.880790849e-38
0.158301 0.137233 0.0302 1.880790849e-38
0.1200925714 0.1121448571 0.02811428571 1.880790849e-38
0.1590511053 0.1413932105 0.03022105263 1.880790849e-38
0.11958 0.102434 0.0154 1.880790849e-38
0.15878 0.102138 0.0524 1.880790849e-38
0.1600254884 0.1410210465 0.03021395349 1.880790849e-38
0.1130065 0.106365 0.001 1.880790849e-38
0.1586974286 0.1376351429 0.03008571429 1.880790849e-38
0.1200197143 0.1178673929 0.07819285714 1.880790849e-38
0.1587805 0.099276 0.0581 1.880790849e-38
0.149426 0.137711 0.0296 1.880790849e-38
0.154584 0.137712 0.0296 1.880790849e-38
0.123815 0.120607 0.0296 1.880790849e-38
0.114527 0.101899 0.0296 1.880790849e-38
0.11789025 0.106055625 0.0609 1.880790849e-38
0.100078 0.131412 0.0296 1.880790849e-38
0.1180582857 0.1413522857 0.09217142857 1.880790849e-38
0.118367 0.137711 0.0296 1.880790849e-38
0.1420428 0.1377108 0.0312 1.880790849e-38
0.128525 0.141352 0.0296 1.880790849e-38
0.103672 0.137712 0.0296 1.880790849e-38
0.1142355833 0.1062650833 0.02428333333 1.880790849e-38
0.158781 0.1187155 0.0295 1.880790849e-38
0.15878 0.1292805 0.0295 1.880790849e-38
0.076342 0.138464 0.0991 1.880790849e-38
0.07557242857 0.1387594286 0.03428571429 1.880790849e-38
0.1017861 0.1265585 0.04728 1.880790849e-38
0.1213025556 0.1061268889 0.09215555556 1.880790849e-38
0.1209155 0.105294 0.0295 1.880790849e-38
0.1283416667 0.141352 0.0104 1.880790849e-38
0.0800904 0.1367144 0.0452 1.880790849e-38
0.15975 0.106914 0.0859 1.880790849e-38
0.16022 0.107964 0.0215 1.880790849e-38
0.11187 0.1259101667 0.08123333333 1.880790849e-38
0.118571 0.1187705 0.0295 1.880790849e-38
0.115875 0.120029 0.0962 1.880790849e-38
0.1153355 0.137711 0.0295 1.880790849e-38
0.16022 0.106166 0.0561 1.880790849e-38
0.1143595 0.1413525 0.0295 1.880790849e-38
0.0744546 0.1393014 0.0702 1.880790849e-38
0.07432166667 0.139937 0.0052 1.880790849e-38
0.10891475 0.1408605 0.0005 1.880790849e-38
0.1601570909 0.09371645455 0.06516363636 1.880790849e-38
0.0969335 0.141352 0.0293 1.880790849e-38
0.114295 0.141353 0.0805 1.880790849e-38
0.086709 0.141352 0.008133333333 1.880790849e-38
0.1460221429 0.1377118571 0.02945714286 1.880790849e-38
0.1392796667 0.141352 0.0294 1.880790849e-38
0.1183912 0.0997895 0.0292 1.880790849e-38
0.1028686667 0.141352 0.0294 1.880790849e-38
0.08881266667 0.132646 0.0294 1.880790849e-38
0.12199 0.141352625 0.087125 1.880790849e-38
0.1126366667 0.121538 0.02926666667 1.880790849e-38
0.106403 0.1244445 0.0159 1.880790849e-38
0.086968 0.133507 0.0468 1.880790849e-38
0.11300525 0.1056835 0.0394 1.880790849e-38
0.075321 0.1416475 0.0292 1.880790849e-38
0.16022 0.13516325 0.0293 1.880790849e-38
0.1129265 0.10500675 0.0604 1.880790849e-38
0.1330162 0.137711 0.0902 1.880790849e-38
0.1329175714 0.1413522857 0.0294 1.880790849e-38
0.1301238 0.1413524 0.03728 1.880790849e-38
0.116611 0.12397 0.029 1.880790849e-38
0.1126035 0.121552 0.0943 1.880790849e-38
0.1132303333 0.121261 0.0294 1.880790849e-38
