# .PCD v0.7 - Point Cloud Data file format
VERSION 0.7
FIELDS x y z rgb
SIZE 4 4 4 4
TYPE F F F F
COUNT 1 1 1 1
WIDTH 838
HEIGHT 1
VIEWPOINT 0 0 0 1 0 0 0
POINTS 838
DATA ascii
-0.01584957469 0.04269349822 -2.289999962 1.880790849e-38
0.03782485669 -0.01095611439 -2.290999889 1.880790849e-38
0.2388693974 -0.17316183 -2.306999922 1.880790849e-38
-0.03118040965 0.04269349822 -2.289999962 1.880790849e-38
-0.1052280965 -0.1739124224 -2.316999912 1.880790849e-38
0.2939807322 -0.110847693 -2.378000021 1.880790849e-38
-0.004229836136 -0.02926869424 -2.226000071 1.880790849e-38
0.03683424589 -0.05173274167 -2.230999947 1.880790849e-38
0.1129003787 -0.03463859891 -2.336999893 1.880790849e-38
0.03399047439 -0.01095611439 -2.290999889 1.880790849e-38
0.1967083339 -0.04676668623 -2.357000113 1.880790849e-38
0.1739435705 -0.1359598677 -2.266000032 1.880790849e-38
-0.0005375411949 -0.3250299567 -2.372999907 1.880790849e-38
0.0265285165 0.03145702759 -2.309000015 1.880790849e-38
0.01492205377 0.04301043612 -2.306999922 1.880790849e-38
0.03157768063 -0.2603504735 -2.398999929 1.880790849e-38
0.02939264868 -0.02562433603 -2.23300004 1.880790849e-38
0.2276860113 -0.1135229648 -2.351000071 1.880790849e-38
0.08248345876 -0.05980914118 -2.253999949 1.880790849e-38
0.01441106884 -0.04047908311 -2.227999926 1.880790849e-38
0.1645189601 -0.003371056798 -2.34800005 1.880790849e-38
-0.05299376666 -0.2281026309 -2.24000001 1.880790849e-38
0.05975828934 -0.2003883626 -2.40199995 1.880790849e-38
-0.1090828549 -0.1941093179 -2.236999989 1.880790849e-38
0.06562521778 0.02389433058 -2.325000048 1.880790849e-38
0.0814697285 0.04739889016 -2.332999945 1.880790849e-38
0.3321583546 -0.10763266 -2.394999981 1.880790849e-38
0.2732739779 -0.1144887058 -2.371000051 1.880790849e-38
0.08804578437 -0.208773805 -2.405999899 1.880790849e-38
0.2861410174 -0.08302944505 -2.378999949 1.880790849e-38
0.3023216364 -0.1109875355 -2.381000042 1.880790849e-38
0.05771824735 0.04713477265 -2.319999933 1.880790849e-38
0.04209565486 0.04703319161 -2.315000057 1.880790849e-38
0.2451854181 -0.08660782536 -2.368000031 1.880790849e-38
0.06733383783 -0.0899015943 -2.252000093 1.880790849e-38
0.03833667502 0.09768454416 -2.322000027 1.880790849e-38
0.07783103172 0.08673252927 -2.34100008 1.880790849e-38
-0.111601728 -0.1065091415 -2.369999886 1.880790849e-38
-0.04571913101 -0.2480553509 -2.250999928 1.880790849e-38
0.01880764055 0.04693160572 -2.309999943 1.880790849e-38
0.03817157322 0.02376072776 -2.312000036 1.880790849e-38
-0.0005212315221 0.04674875887 -2.301000118 1.880790849e-38
-0.004366650289 0.0466878083 -2.298000097 1.880790849e-38
-0.008205600563 0.04664717298 -2.296000004 1.880790849e-38
-0.0005108114218 -0.2824550497 -2.255000114 1.880790849e-38
-0.1591114891 -0.3035628429 -1.975000024 1.880790849e-38
0.007190369049 0.04680970459 -2.303999901 1.880790849e-38
0.09326364526 0.03571831364 -2.335000038 1.880790849e-38
0.02939264868 -0.06672471103 -2.23300004 1.880790849e-38
0.02658596097 0.06250059885 -2.313999891 1.880790849e-38
0.3320196764 -0.07554137712 -2.394000053 1.880790849e-38
-0.0005207784531 0.03901445734 -2.299000025 1.880790849e-38
0.03823761316 0.0586793424 -2.315999985 1.880790849e-38
0.196624863 -0.05857346831 -2.355999947 1.880790849e-38
0.2990884219 -0.07132641647 -2.387000084 1.880790849e-38
0.1249544805 0.04368160054 -2.342999935 1.880790849e-38
0.06996499477 0.09844178394 -2.339999914 1.880790849e-38
0.07324992276 -0.0110947996 -2.319999933 1.880790849e-38
0.2461172949 -0.02329943146 -2.377000093 1.880790849e-38
0.2026883203 -0.1166574403 -2.335000038 1.880790849e-38
0.1649393692 0.02025350513 -2.354000092 1.880790849e-38
-0.04767073434 -0.4310895127 -2.015000105 1.880790849e-38
0.2378600745 -0.03121468106 -2.374000072 1.880790849e-38
0.2364573436 -0.09421303034 -2.359999895 1.880790849e-38
0.2410184184 -0.08257573182 -2.365999937 1.880790849e-38
0.06336714124 -0.0483008976 -2.244999886 1.880790849e-38
0.1088491088 -0.03068873919 -2.334000111 1.880790849e-38
0.1925999144 -0.03096485773 -2.355000019 1.880790849e-38
-0.02652368713 -0.02177031309 -2.220999956 1.880790849e-38
0.2908543972 -0.05929445014 -2.38499999 1.880790849e-38
0.1211363866 0.05156649565 -2.345000029 1.880790849e-38
-0.1760123007 -0.1904830108 -2.329999924 1.880790849e-38
-0.06523755344 -0.4187539724 -2.036999941 1.880790849e-38
0.2420370921 -0.01533827933 -2.375999928 1.880790849e-38
0.1053024545 0.05150052526 -2.342000008 1.880790849e-38
0.09342340962 0.05143455487 -2.338999987 1.880790849e-38
-0.004349548407 0.03118455468 -2.289000034 1.880790849e-38
0.0734709345 0.04338330475 -2.326999903 1.880790849e-38
0.06170737374 0.05110470291 -2.323999882 1.880790849e-38
0.06768570716 -0.1719672612 -2.398000002 1.880790849e-38
0.0072090941 0.06625780004 -2.309999943 1.880790849e-38
0.336166799 -0.10763266 -2.394999981 1.880790849e-38
0.06539940676 -0.01108045278 -2.316999912 1.880790849e-38
-0.004372350917 0.05059893865 -2.301000118 1.880790849e-38
0.08530122189 0.02005561616 -2.33100009 1.880790849e-38
-0.008162713849 0.02729470086 -2.28399992 1.880790849e-38
0.05974251204 -0.08982174902 -2.25 1.880790849e-38
-0.2073203384 -0.2818670466 -1.962000012 1.880790849e-38
-0.1193331886 -0.08653467344 -2.365999937 1.880790849e-38
0.1171116538 0.03976114399 -2.342999935 1.880790849e-38
0.1608627508 0.03204284467 -2.351999998 1.880790849e-38
0.2460137365 -0.03521665051 -2.375999928 1.880790849e-38
0.1724519335 -0.07412142405 -2.348999977 1.880790849e-38
-0.1193331886 -0.07465784859 -2.365999937 1.880790849e-38
0.1977932569 0.03228806899 -2.369999886 1.880790849e-38
0.2261305142 0.008515766093 -2.375999928 1.880790849e-38
0.07871100223 -0.07866682174 -2.253999949 1.880790849e-38
0.29048854 -0.07516272096 -2.381999969 1.880790849e-38
0.06165427314 0.02386349897 -2.322000027 1.880790849e-38
0.2786454024 -0.05126995095 -2.382999897 1.880790849e-38
0.03310028382 -0.04799969063 -2.230999947 1.880790849e-38
0.09986759792 -0.3700330009 -2.306999922 1.880790849e-38
0.200568034 -0.05463125932 -2.355999947 1.880790849e-38
0.1248478262 0.02405876502 -2.34100008 1.880790849e-38
0.3068212277 -0.09122031986 -2.38499999 1.880790849e-38
0.2744265453 -0.05122692431 -2.381000042 1.880790849e-38
0.08927908171 0.03178399443 -2.332999945 1.880790849e-38
0.09733812833 0.04752079129 -2.338999987 1.880790849e-38
0.1093621042 0.05549029888 -2.345000029 1.880790849e-38
-0.06157202709 -0.007088469129 -2.279999971 1.880790849e-38
0.08178401598 0.09460714275 -2.342000008 1.880790849e-38
0.08947042575 0.05532465692 -2.338000059 1.880790849e-38
-0.07963301032 -0.05083965381 -2.362999916 1.880790849e-38
0.06712453462 -0.05205737423 -2.244999886 1.880790849e-38
-0.05372716014 0.01573940102 -2.270999908 1.880790849e-38
0.08793600954 -0.1964509494 -2.403000116 1.880790849e-38
-0.1232930964 -0.08257573182 -2.365999937 1.880790849e-38
-0.0005196458077 0.03125267129 -2.29399991 1.880790849e-38
0.081364966 0.000553490341 -2.329999924 1.880790849e-38
0.2332956523 -0.05094723066 -2.368000031 1.880790849e-38
0.2378600745 -0.02724235311 -2.374000072 1.880790849e-38
-0.07375654796 -0.01486702776 -2.302999973 1.880790849e-38
0.1172616058 0.05551396041 -2.345999956 1.880790849e-38
0.249990381 -0.04316799899 -2.375999928 1.880790849e-38
0.2214878259 -0.1640071376 -2.286999941 1.880790849e-38
0.03823761316 0.05480406388 -2.315999985 1.880790849e-38
0.07743206594 0.02003840762 -2.328999996 1.880790849e-38
-0.08772802453 -0.06283409556 -2.368000031 1.880790849e-38
0.01108965982 0.0779546258 -2.312999964 1.880790849e-38
0.04195018145 -0.003312192336 -2.306999922 1.880790849e-38
0.06784212935 -0.1019701516 -2.269000053 1.880790849e-38
-0.06768231272 -0.05077510872 -2.359999895 1.880790849e-38
-0.004376151033 0.05449644149 -2.302999973 1.880790849e-38
0.1448083412 -0.01907821892 -2.346999884 1.880790849e-38
-0.01207458971 0.05444911844 -2.301000118 1.880790849e-38
-0.01203260868 0.04274942896 -2.292999983 1.880790849e-38
0.2343532831 -0.1520811514 -2.338999987 1.880790849e-38
0.0848254961 -0.03047836181 -2.318000078 1.880790849e-38
0.1973759819 0.008476341543 -2.36500001 1.880790849e-38
-0.02649980441 -0.006898821891 -2.219000101 1.880790849e-38
0.1487364491 -0.05049541507 -2.346999884 1.880790849e-38
0.1609311399 0.03599365651 -2.352999926 1.880790849e-38
0.09298405526 -0.015028416 -2.328000069 1.880790849e-38
0.05585415643 -0.2692737761 -2.407000065 1.880790849e-38
0.02563235968 -0.05919884376 -2.230999947 1.880790849e-38
0.05958319756 -0.07080820523 -2.243999958 1.880790849e-38
-0.2266485555 -0.2063717873 -2.289999962 1.880790849e-38
0.07743206594 0.0317295005 -2.328999996 1.880790849e-38
0.2028802597 -0.14525345 -2.292999983 1.880790849e-38
0.02937948678 -0.02934758615 -2.232000113 1.880790849e-38
0.2210318949 -0.04690557692 -2.364000082 1.880790849e-38
0.1590536748 -0.1248049392 -2.269999981 1.880790849e-38
0.06345181953 -0.0746959179 -2.247999907 1.880790849e-38
0.04990935034 0.01218651538 -2.318000078 1.880790849e-38
0.2071272166 -0.109122984 -2.34100008 1.880790849e-38
0.1549124778 -0.1358998721 -2.265000105 1.880790849e-38
0.1251678016 0.05946477145 -2.346999884 1.880790849e-38
0.2912202543 -0.04738177426 -2.388000011 1.880790849e-38
-0.0543422669 0.0197630833 -2.296999931 1.880790849e-38
0.1915367293 -0.09741324424 -2.342000008 1.880790849e-38
0.1053474139 0.05936342674 -2.342999935 1.880790849e-38
0.07334464315 -0.007222155118 -2.322999954 1.880790849e-38
0.07756505189 0.05911006195 -2.332999945 1.880790849e-38
0.007184127861 0.03906536825 -2.302000046 1.880790849e-38
-0.02028392472 -0.3311471482 -2.359999895 1.880790849e-38
0.2984619132 -0.0990770043 -2.381999969 1.880790849e-38
0.006971911855 -0.003207385272 -2.233999968 1.880790849e-38
0.03693330775 -0.02192714592 -2.236999989 1.880790849e-38
0.1368354298 -0.01513815933 -2.345000029 1.880790849e-38
0.06173393038 0.05890737252 -2.325000048 1.880790849e-38
0.1751068838 -0.1126055074 -2.332000017 1.880790849e-38
0.3154646259 -0.1074079627 -2.390000105 1.880790849e-38
0.03696632969 -0.0781433116 -2.239000082 1.880790849e-38
0.05779288354 0.05885669715 -2.322999954 1.880790849e-38
0.07766479334 0.0670035595 -2.335999966 1.880790849e-38
0.05385853723 0.05880602781 -2.321000099 1.880790849e-38
0.0114540411 -0.2632626553 -2.388999939 1.880790849e-38
0.3023216364 -0.103019454 -2.381000042 1.880790849e-38
0.07362880433 0.06298677807 -2.332000017 1.880790849e-38
-0.09961779034 -0.07472096046 -2.368000031 1.880790849e-38
0.1645189601 -0.04658811046 -2.34800005 1.880790849e-38
0.0734709345 0.03948962047 -2.326999903 1.880790849e-38
0.04997394443 0.05880602781 -2.321000099 1.880790849e-38
0.02657447262 0.05860333235 -2.312999964 1.880790849e-38
0.04062275994 -0.06301651919 -2.233999968 1.880790849e-38
0.2866221226 -0.05924472501 -2.382999897 1.880790849e-38
-0.02655951407 0.01541366311 -2.223999977 1.880790849e-38
0.09725489389 0.03574890527 -2.336999893 1.880790849e-38
0.01494792763 0.05855266302 -2.311000109 1.880790849e-38
0.08380941312 -0.1881740249 -2.400000095 1.880790849e-38
-0.05056379574 0.02748590757 -2.299999952 1.880790849e-38
-0.01540661789 -0.03299337917 -2.226000071 1.880790849e-38
-0.01207458971 0.05829929822 -2.301000118 1.880790849e-38
0.01093144163 0.01198673589 -2.279999971 1.880790849e-38
0.1565926649 -0.01122391988 -2.346999884 1.880790849e-38
0.2148715084 -0.1169072359 -2.339999914 1.880790849e-38
0.06769262807 -0.3290415675 -2.263999939 1.880790849e-38
-0.2076373442 -0.2987378543 -1.965000033 1.880790849e-38
0.1843247301 -0.07022080688 -2.349999905 1.880790849e-38
-0.0159257091 0.05829929822 -2.301000118 1.880790849e-38
0.1876169895 -0.09741324424 -2.342000008 1.880790849e-38
0.1592638793 -0.1211665526 -2.273000002 1.880790849e-38
-0.01976823218 0.05827395751 -2.299999952 1.880790849e-38
0.04604963469 0.05875535244 -2.319000006 1.880790849e-38
-0.1055272057 -0.1794572675 -2.240999937 1.880790849e-38
0.285539643 -0.1106612401 -2.374000072 1.880790849e-38
0.1052125251 0.0436256698 -2.339999914 1.880790849e-38
0.1011229793 0.01618989067 -2.335999966 1.880790849e-38
0.09326364526 0.03181124303 -2.335000038 1.880790849e-38
-0.04288354486 -0.2227638261 -2.301000118 1.880790849e-38
0.177422371 -0.1508595608 -2.262000084 1.880790849e-38
0.07985908925 -0.308906199 -2.40199995 1.880790849e-38
0.0677986093 -0.2888103034 -2.40199995 1.880790849e-38
-0.08358789704 -0.05083965381 -2.362999916 1.880790849e-38
0.1605207728 -0.06620401314 -2.346999884 1.880790849e-38
0.2214993788 -0.02322101388 -2.368999958 1.880790849e-38
0.2208448879 -0.05872263779 -2.361999989 1.880790849e-38
0.1605207728 -0.05834971411 -2.346999884 1.880790849e-38
-0.02048160706 -0.2386771414 -2.382999897 1.880790849e-38
0.02228120275 0.0005392373839 -2.269999981 1.880790849e-38
0.07306048197 -0.02268190145 -2.313999891 1.880790849e-38
-0.06533064539 -0.003270556906 -2.278000116 1.880790849e-38
0.06715443915 -0.06335501674 -2.246000051 1.880790849e-38
-0.007008354702 -0.4228179824 -1.960999966 1.880790849e-38
0.2330000899 -0.062754491 -2.36500001 1.880790849e-38
0.01102253723 0.02362712494 -2.299000025 1.880790849e-38
0.0226640079 0.03918415904 -2.309000015 1.880790849e-38
0.06757303133 -0.3095523506 -2.25999999 1.880790849e-38
0.1092221943 0.04758174185 -2.342000008 1.880790849e-38
0.3320196764 -0.07153558393 -2.394000053 1.880790849e-38
0.2665684206 -0.02334844041 -2.381999969 1.880790849e-38
-0.09184616172 -0.1105680081 -2.371999979 1.880790849e-38
-0.1319734632 -0.1849827261 -2.309999943 1.880790849e-38
0.2193488992 -0.1093560474 -2.345999956 1.880790849e-38
-0.03392756094 -0.01061179403 -2.219000101 1.880790849e-38
-0.03893064529 0.03894657747 -2.295000076 1.880790849e-38
0.04604963469 0.0548750541 -2.319000006 1.880790849e-38
0.1932467928 -0.1513930979 -2.269999981 1.880790849e-38
0.03685075882 -0.03681703532 -2.232000113 1.880790849e-38
0.2588560491 -0.235887432 -2.279000044 1.880790849e-38
0.0187994993 0.03918415904 -2.309000015 1.880790849e-38
-0.000522137606 0.05454377018 -2.305000067 1.880790849e-38
0.1014260006 0.06328388329 -2.342999935 1.880790849e-38
0.2312267153 -0.1290384054 -2.346999884 1.880790849e-38
0.2621407964 -0.04320433739 -2.378000021 1.880790849e-38
0.2247029352 -0.06659892919 -2.361000061 1.880790849e-38
-0.09153639788 -0.04294998159 -2.364000082 1.880790849e-38
-0.05750273926 0.0005392373839 -2.269999981 1.880790849e-38
0.2136777767 -0.1435135406 -2.326999903 1.880790849e-38
-0.03765840122 -0.02176051177 -2.220000029 1.880790849e-38
-0.1079530447 -0.1227331259 -2.377000093 1.880790849e-38
0.1728190171 0.0123757797 -2.354000092 1.880790849e-38
0.08160940905 0.06312182355 -2.336999893 1.880790849e-38
0.1447466463 0.008408243893 -2.345999956 1.880790849e-38
0.1436666131 -0.147399729 -2.26699996 1.880790849e-38
0.2738502479 -0.09087608983 -2.375999928 1.880790849e-38
-0.02279619396 -0.01433122121 -2.220000029 1.880790849e-38
0.03825412215 0.06258162872 -2.316999912 1.880790849e-38
-0.02279619396 0.004242005201 -2.220000029 1.880790849e-38
0.04814379062 -0.05559010259 -2.236000061 1.880790849e-38
0.03047200276 0.0625276131 -2.315000057 1.880790849e-38
0.1792401756 -0.1088432991 -2.335000038 1.880790849e-38
0.1446849515 0.02409987301 -2.345000029 1.880790849e-38
0.1894475574 -0.1931744901 -2.269999981 1.880790849e-38
0.2302040212 0.004542002986 -2.377000093 1.880790849e-38
0.003341464908 0.06236555336 -2.309000015 1.880790849e-38
0.1952895471 -0.1051609257 -2.339999914 1.880790849e-38
0.06829061893 -0.03767477665 -2.28399992 1.880790849e-38
0.2212188795 -0.04298631566 -2.365999937 1.880790849e-38
0.209427649 -0.01528018092 -2.367000103 1.880790849e-38
0.2153306461 -0.1053856337 -2.345000029 1.880790849e-38
-0.00438185166 0.06228452349 -2.305999994 1.880790849e-38
0.08563056381 0.07886460032 -2.339999914 1.880790849e-38
-0.07929470253 -0.387118447 -1.963000059 1.880790849e-38
-0.07060019176 -0.1979400278 -2.325999975 1.880790849e-38
0.01441106884 -0.03675105189 -2.227999926 1.880790849e-38
-0.06956820514 -0.003290656816 -2.292000055 1.880790849e-38
0.2237391884 -0.2008595459 -2.270999908 1.880790849e-38
0.1208780941 -0.007275007615 -2.339999914 1.880790849e-38
0.2450818845 -0.09449248408 -2.367000103 1.880790849e-38
0.03430204357 0.0353664844 -2.312000036 1.880790849e-38
-0.1813272204 -0.3184656327 -1.965000033 1.880790849e-38
-0.03625157506 -0.2969848796 -2.371000051 1.880790849e-38
0.09645897048 -0.2863324598 -2.414999962 1.880790849e-38
0.01105609853 0.04685033991 -2.305999994 1.880790849e-38
0.1998869968 -0.08980516412 -2.34800005 1.880790849e-38
0.03817157322 0.0353664844 -2.312000036 1.880790849e-38
-0.09953364976 -0.173631389 -2.365999937 1.880790849e-38
0.148989953 -0.1174568077 -2.351000071 1.880790849e-38
0.05980804877 -0.2206678507 -2.404000044 1.880790849e-38
0.1007766722 -0.02671448946 -2.328000069 1.880790849e-38
-0.03893064529 0.0427867176 -2.295000076 1.880790849e-38
0.08555738059 0.06706092824 -2.338000059 1.880790849e-38
0.2013342161 0.004519073069 -2.36500001 1.880790849e-38
-0.08780211378 -0.0747840648 -2.369999886 1.880790849e-38
0.05378892209 0.008307890182 -2.318000078 1.880790849e-38
0.1769090076 0.01238629362 -2.355999947 1.880790849e-38
0.07739882144 0.0005530152764 -2.328000069 1.880790849e-38
0.1130936276 0.03581009581 -2.34100008 1.880790849e-38
-0.09573531852 -0.09857787231 -2.369999886 1.880790849e-38
0.2431145973 -0.14873751 -2.34800005 1.880790849e-38
0.2431713068 -0.205020019 -2.275000095 1.880790849e-38
0.04218657194 0.06654463007 -2.319999933 1.880790849e-38
0.1052574952 0.04756142661 -2.34100008 1.880790849e-38
0.08893466792 -0.01889125723 -2.323999882 1.880790849e-38
0.1208780941 0.008386739282 -2.339999914 1.880790849e-38
0.0149414584 0.05079684458 -2.309999943 1.880790849e-38
0.06162772284 0.03162051264 -2.321000099 1.880790849e-38
0.07490530119 -0.07109219734 -2.253000021 1.880790849e-38
-0.09176871615 -0.09461223773 -2.369999886 1.880790849e-38
-0.1154220519 -0.09449248408 -2.367000103 1.880790849e-38
0.1487364491 0.00841182771 -2.346999884 1.880790849e-38
0.2181772252 0.01646711457 -2.375999928 1.880790849e-38
0.03436138891 0.0586793424 -2.315999985 1.880790849e-38
0.06165427314 0.03940477164 -2.322000027 1.880790849e-38
0.04060457739 -0.05925191558 -2.23300004 1.880790849e-38
-0.04282763372 0.04284264834 -2.298000097 1.880790849e-38
0.1288208931 0.02798782481 -2.342000008 1.880790849e-38
0.2067732877 -0.1167573538 -2.336999893 1.880790849e-38
0.1699257621 -0.1774324181 -2.263000011 1.880790849e-38
0.03045883772 0.05088480336 -2.313999891 1.880790849e-38
-0.06743362401 -0.3577821041 -2.000999928 1.880790849e-38
0.0853378135 0.03957447334 -2.332000017 1.880790849e-38
-0.03206544391 -0.3304455826 -2.355000019 1.880790849e-38
0.24946432 -0.06688100825 -2.371000051 1.880790849e-38
0.3280129056 -0.1115935159 -2.394000053 1.880790849e-38
0.158563203 -0.1433530578 -2.263000011 1.880790849e-38
0.05585235449 -0.0821091873 -2.244999886 1.880790849e-38
-0.1074988885 -0.07468940829 -2.367000103 1.880790849e-38
0.2623612783 -0.02332883776 -2.380000114 1.880790849e-38
-0.1337445436 -0.1757138585 -2.34100008 1.880790849e-38
-0.01976823218 0.05442545127 -2.299999952 1.880790849e-38
0.1002511948 -0.2090341233 -2.40899992 1.880790849e-38
-0.1722801788 -0.3161401031 -2.013000011 1.880790849e-38
0.05176103381 -0.2367579539 -2.404000044 1.880790849e-38
-0.01909783066 -0.01806212285 -2.221999884 1.880790849e-38
0.3238707715 -0.09953453533 -2.392999887 1.880790849e-38
0.1992059393 -0.1051609257 -2.339999914 1.880790849e-38
0.04814379062 -0.04062443237 -2.236000061 1.880790849e-38
0.3069498646 -0.08726615775 -2.385999918 1.880790849e-38
0.1005841227 -0.2501710949 -2.417000055 1.880790849e-38
0.1169617019 0.004471302558 -2.339999914 1.880790849e-38
0.1865755621 -0.120254707 -2.328999996 1.880790849e-38
0.1289859082 -0.0465285852 -2.345000029 1.880790849e-38
0.07743206594 0.02393543858 -2.328999996 1.880790849e-38
0.06570989607 0.05508802475 -2.328000069 1.880790849e-38
-0.0302409125 -0.02177031309 -2.220999956 1.880790849e-38
-0.1091803855 -0.1830435582 -2.239000082 1.880790849e-38
0.1170616738 -0.04255027653 -2.342000008 1.880790849e-38
0.04969403843 -0.01103741345 -2.308000088 1.880790849e-38
0.08415861866 -0.2897722191 -2.410000086 1.880790849e-38
-0.03612925642 -0.3197063356 -2.362999916 1.880790849e-38
0.3191973551 -0.119305338 -2.388000011 1.880790849e-38
0.08478889577 -0.04209606604 -2.316999912 1.880790849e-38
0.2242318003 -0.2165351753 -2.276000023 1.880790849e-38
0.1288208931 0.008393907771 -2.342000008 1.880790849e-38
0.3280129056 -0.07954717031 -2.394000053 1.880790849e-38
0.01081158001 -0.2824550497 -2.255000114 1.880790849e-38
0.05739482584 -0.01489284945 -2.306999922 1.880790849e-38
0.2418333719 -0.03518700902 -2.374000072 1.880790849e-38
-0.2066759546 -0.2016584865 -2.323999882 1.880790849e-38
-0.06046481378 -0.2130150573 -2.239000082 1.880790849e-38
0.04610920773 0.06660199882 -2.322000027 1.880790849e-38
0.07166927513 -0.1638739276 -2.397000074 1.880790849e-38
0.03822110416 0.05090679698 -2.315000057 1.880790849e-38
0.01498673535 0.105228097 -2.316999912 1.880790849e-38
0.1647291646 0.004492321801 -2.351000071 1.880790849e-38
-0.1351728197 -0.09049361506 -2.365999937 1.880790849e-38
0.2589696241 -0.2474360523 -2.279999971 1.880790849e-38
-0.1035810456 -0.08264553706 -2.368000031 1.880790849e-38
0.06377844932 -0.2003883626 -2.40199995 1.880790849e-38
0.1088491088 -0.02287794424 -2.334000111 1.880790849e-38
-0.06341205734 -0.3937840296 -1.980000019 1.880790849e-38
-0.08344640432 -0.007334078358 -2.358999968 1.880790849e-38
0.06178703098 0.06285172614 -2.326999903 1.880790849e-38
-0.1153245214 -0.0469254171 -2.36500001 1.880790849e-38
0.02321367628 -0.3239342103 -2.36500001 1.880790849e-38
0.1644488808 -0.0151510694 -2.346999884 1.880790849e-38
0.2938571159 -0.1187557781 -2.377000093 1.880790849e-38
0.2333941653 -0.04700478253 -2.368999958 1.880790849e-38
0.08927908171 0.03568771837 -2.332999945 1.880790849e-38
0.01105130438 0.03911627917 -2.305000067 1.880790849e-38
-0.08783916723 -0.07878293262 -2.371000051 1.880790849e-38
0.007115469588 0.01198673589 -2.279999971 1.880790849e-38
-0.04381538975 -0.3259504806 -2.351000071 1.880790849e-38
0.08778962567 -0.3245770223 -2.398999929 1.880790849e-38
0.01106568796 0.05075286782 -2.308000088 1.880790849e-38
0.1080901386 -0.3172084702 -2.404000044 1.880790849e-38
0.05727043615 -0.02256427858 -2.302000046 1.880790849e-38
0.1124400987 -0.2213103915 -2.411000013 1.880790849e-38
-0.08754278376 -0.04293181023 -2.362999916 1.880790849e-38
0.1840894203 -0.08976691025 -2.346999884 1.880790849e-38
0.02250695945 0.004381494472 -2.292999983 1.880790849e-38
-0.0190892364 -0.003188720972 -2.220999956 1.880790849e-38
0.192518137 -0.05852374911 -2.354000092 1.880790849e-38
0.09170592136 -0.3605850342 -2.296000004 1.880790849e-38
0.08935562115 0.04743952548 -2.335000038 1.880790849e-38
-0.2198437764 -0.1879486956 -2.299000025 1.880790849e-38
0.1331373794 0.06344594303 -2.348999977 1.880790849e-38
0.18849819 -0.05062450524 -2.352999926 1.880790849e-38
0.1947053501 -0.1204612388 -2.332999945 1.880790849e-38
0.01107527625 0.06239256117 -2.309999943 1.880790849e-38
0.1929913987 -0.1701594603 -2.26699996 1.880790849e-38
0.2407128138 -0.0982867153 -2.362999916 1.880790849e-38
-0.09957572507 -0.06676817797 -2.367000103 1.880790849e-38
-0.03809944594 -0.2249554742 -2.246000051 1.880790849e-38
-0.09589690467 -0.118605896 -2.374000072 1.880790849e-38
0.2550417506 -0.2397007999 -2.279000044 1.880790849e-38
-0.06520552947 -0.425361943 -2.036000013 1.880790849e-38
-0.06986293039 -0.3960943221 -1.975000024 1.880790849e-38
0.2980860139 -0.1268170797 -2.378999949 1.880790849e-38
0.2284418478 -0.2283608473 -2.279999971 1.880790849e-38
-0.0116705284 -0.01435704289 -2.223999977 1.880790849e-38
0.2391848155 -0.144808687 -2.34800005 1.880790849e-38
0.03016925714 -0.007125777123 -2.292000055 1.880790849e-38
0.08548418865 0.05918607199 -2.335999966 1.880790849e-38
-0.07172323688 -0.0547935756 -2.362999916 1.880790849e-38
0.01110883755 0.1013511453 -2.316999912 1.880790849e-38
0.2809733111 -0.1461038186 -2.368999958 1.880790849e-38
0.2571801758 -0.1829208217 -2.332999945 1.880790849e-38
0.1936630996 0.03226082365 -2.368000031 1.880790849e-38
0.04369583629 -0.2648054448 -2.403000116 1.880790849e-38
0.1147624264 -0.3567432209 -2.296000004 1.880790849e-38
0.2091622129 -0.03108319559 -2.364000082 1.880790849e-38
-0.04185851326 -0.2249554742 -2.246000051 1.880790849e-38
0.1684487419 -0.05051693352 -2.34800005 1.880790849e-38
0.2008234281 -0.01917576483 -2.358999968 1.880790849e-38
0.03049832655 0.07033553204 -2.316999912 1.880790849e-38
0.266008887 -0.0710276048 -2.377000093 1.880790849e-38
0.2076580678 -0.09369405977 -2.346999884 1.880790849e-38
0.1368937776 -0.01907009074 -2.345999956 1.880790849e-38
0.007199731574 0.05845131227 -2.306999922 1.880790849e-38
-0.008212748633 -0.2532346685 -2.298000097 1.880790849e-38
0.1566593964 -0.03873046434 -2.34800005 1.880790849e-38
0.01067733368 -0.03300819992 -2.226999998 1.880790849e-38
0.04597020556 0.01217074325 -2.315000057 1.880790849e-38
0.08753346697 -0.1475223024 -2.39199996 1.880790849e-38
0.01110883755 0.105228097 -2.316999912 1.880790849e-38
-0.01538585411 0.0005280725732 -2.22300005 1.880790849e-38
0.08139989239 0.008354483221 -2.33100009 1.880790849e-38
0.02193765913 -0.01816779693 -2.234999895 1.880790849e-38
0.2360565736 -0.1098221853 -2.355999947 1.880790849e-38
0.2770083823 -0.1421398572 -2.368999958 1.880790849e-38
0.1367187204 0.02799977434 -2.342999935 1.880790849e-38
-0.1943833045 -0.2887269486 -1.963999987 1.880790849e-38
0.2973342154 -0.1503211627 -2.372999907 1.880790849e-38
0.3157285938 -0.07547826525 -2.39199996 1.880790849e-38
-0.1037560113 -0.1105680081 -2.371999979 1.880790849e-38
0.02662042875 0.08584333867 -2.316999912 1.880790849e-38
-0.1710246371 -0.3242144819 -1.960000038 1.880790849e-38
-0.09953364976 -0.05882208212 -2.365999937 1.880790849e-38
0.03159084566 -0.2524273504 -2.400000095 1.880790849e-38
0.1565926649 -0.05834971411 -2.346999884 1.880790849e-38
-0.004376151033 0.05834996756 -2.302999973 1.880790849e-38
-0.09949158449 -0.05483995405 -2.36500001 1.880790849e-38
0.01819700246 -0.01442805292 -2.234999895 1.880790849e-38
0.1843247301 -0.03483128277 -2.349999905 1.880790849e-38
0.1685204781 -0.08984340886 -2.348999977 1.880790849e-38
0.03445040867 0.09379922599 -2.322000027 1.880790849e-38
0.02190821474 -0.06296010742 -2.232000113 1.880790849e-38
0.2375594911 -0.04704446761 -2.371000051 1.880790849e-38
0.3033374037 -0.06339132116 -2.388999939 1.880790849e-38
0.003253188719 0.008057004194 -2.247999907 1.880790849e-38
-0.02355606586 0.04660653765 -2.29399991 1.880790849e-38
0.1538354055 -0.1062844442 -2.36500001 1.880790849e-38
0.2490434662 -0.09449248408 -2.367000103 1.880790849e-38
0.05376571336 0.03544296712 -2.316999912 1.880790849e-38
0.05406737711 -0.2996467257 -2.329999924 1.880790849e-38
0.01884020747 0.07024446252 -2.313999891 1.880790849e-38
-0.02414718524 -0.4393537659 -2.022000074 1.880790849e-38
0.3020676795 -0.1188556916 -2.378999949 1.880790849e-38
0.1771342754 0.0202965234 -2.358999968 1.880790849e-38
0.2829895775 -0.03935727546 -2.385999918 1.880790849e-38
-0.05678431629 -0.3937840296 -1.980000019 1.880790849e-38
0.2620305686 -0.05511821369 -2.377000093 1.880790849e-38
0.1607943617 0.02416153623 -2.351000071 1.880790849e-38
0.2619203144 -0.07099771865 -2.375999928 1.880790849e-38
0.2417314875 -0.04311349356 -2.372999907 1.880790849e-38
-0.06103911494 -0.426868779 -2.010999918 1.880790849e-38
-0.008452197464 -0.3397632842 -2.36500001 1.880790849e-38
0.2258449938 -0.01531891268 -2.372999907 1.880790849e-38
0.09286422961 -0.04224141531 -2.325000048 1.880790849e-38
0.1682335163 -0.09753802724 -2.345000029 1.880790849e-38
0.2008234281 -0.02312299365 -2.358999968 1.880790849e-38
0.06525828077 -0.3089376293 -2.312000036 1.880790849e-38
0.05973341258 -0.192269931 -2.401000023 1.880790849e-38
0.02191802954 -0.0218879383 -2.23300004 1.880790849e-38
0.3115948601 -0.07144593971 -2.391000032 1.880790849e-38
0.09354323526 0.07501322571 -2.342000008 1.880790849e-38
-0.0005056013716 0.004264935119 -2.232000113 1.880790849e-38
-0.004283041388 -0.2672436273 -2.253999949 1.880790849e-38
0.2115861757 -0.09762120929 -2.346999884 1.880790849e-38
0.1131419341 0.04366295844 -2.342000008 1.880790849e-38
0.2860207482 -0.08697356751 -2.378000021 1.880790849e-38
0.06336714124 -0.04454442097 -2.244999886 1.880790849e-38
0.09986759792 -0.3661727819 -2.306999922 1.880790849e-38
0.01496086302 0.07021410842 -2.312999964 1.880790849e-38
-0.01537893175 -0.01434413128 -2.221999884 1.880790849e-38
0.1854228489 0.04011752038 -2.364000082 1.880790849e-38
0.00715291969 0.01972006502 -2.292000055 1.880790849e-38
0.06184013792 0.06680277916 -2.328999996 1.880790849e-38
-0.02284753546 0.01169758181 -2.224999905 1.880790849e-38
-0.07084301683 0.004459838055 -2.334000111 1.880790849e-38
0.09237878758 -0.2740961289 -2.414000034 1.880790849e-38
0.08433321727 -0.2620868704 -2.414999962 1.880790849e-38
0.2696464535 -0.09874425625 -2.374000072 1.880790849e-38
0.1011229793 0.02791612194 -2.335999966 1.880790849e-38
0.1148810934 -0.1705330068 -2.378000021 1.880790849e-38
0.1813127563 0.02822683248 -2.361999989 1.880790849e-38
0.2448348527 -0.1707693306 -2.326999903 1.880790849e-38
0.2859004791 -0.09489169147 -2.377000093 1.880790849e-38
0.06165427314 0.02774881714 -2.322000027 1.880790849e-38
-0.03449327418 0.03073497406 -2.256000042 1.880790849e-38
0.08552078026 0.06312182355 -2.336999893 1.880790849e-38
-0.1944197459 -0.1816663257 -2.316999912 1.880790849e-38
0.06404456757 -0.1019701516 -2.269000053 1.880790849e-38
0.1987802962 -0.1127503697 -2.335000038 1.880790849e-38
-0.1881916308 -0.3090728945 -1.968000054 1.880790849e-38
-0.09549295855 -0.03503879093 -2.364000082 1.880790849e-38
0.1010796935 0.0005546781157 -2.335000038 1.880790849e-38
0.2133892307 -0.02320141123 -2.367000103 1.880790849e-38
0.1085847237 -0.2338003493 -2.414999962 1.880790849e-38
0.1408802333 -0.01907821892 -2.346999884 1.880790849e-38
-0.07535311987 -0.2052468047 -2.236000061 1.880790849e-38
0.08927908171 0.0278802705 -2.332999945 1.880790849e-38
0.08139989239 0.03565712674 -2.33100009 1.880790849e-38
0.04195018145 -0.007172411374 -2.306999922 1.880790849e-38
-0.01201161879 0.03501465516 -2.289000034 1.880790849e-38
-0.1776760296 -0.3210986155 -1.960999966 1.880790849e-38
0.140820212 -0.003368185235 -2.345999956 1.880790849e-38
0.03065628188 0.1291552745 -2.328999996 1.880790849e-38
0.006956308141 -0.01811902592 -2.229000092 1.880790849e-38
0.1171116538 0.04368160054 -2.342999935 1.880790849e-38
0.152664557 -0.01907821892 -2.346999884 1.880790849e-38
0.0107300727 0.0005316357842 -2.237999916 1.880790849e-38
0.2903665974 -0.08309925028 -2.381000042 1.880790849e-38
0.2458066693 -0.05107632082 -2.374000072 1.880790849e-38
0.1646590853 0.0005582413266 -2.349999905 1.880790849e-38
0.2942279941 -0.09501145464 -2.380000114 1.880790849e-38
0.2319522153 -0.1785300951 -2.27699995 1.880790849e-38
0.01127664518 -0.2631208574 -2.351999998 1.880790849e-38
-0.01911502123 0.007970986605 -2.223999977 1.880790849e-38
0.2200033901 -0.08999639694 -2.352999926 1.880790849e-38
0.2097831422 -0.1435135406 -2.326999903 1.880790849e-38
-0.1077259612 -0.1145369894 -2.371999979 1.880790849e-38
-0.06956820514 -0.01096089743 -2.292000055 1.880790849e-38
0.05590211393 -0.08594216253 -2.246999979 1.880790849e-38
0.2820407563 -0.08697356751 -2.378000021 1.880790849e-38
0.2572922925 -0.1025435069 -2.369999886 1.880790849e-38
-0.02284753546 0.01542059321 -2.224999905 1.880790849e-38
0.2854193452 -0.1185559274 -2.372999907 1.880790849e-38
0.02720637828 -0.3283074117 -2.368000031 1.880790849e-38
0.1725987705 0.0005584789156 -2.351000071 1.880790849e-38
0.06356472841 -0.0899015943 -2.252000093 1.880790849e-38
0.1605891782 -0.07016104882 -2.34800005 1.880790849e-38
0.1607259564 0.008422580016 -2.349999905 1.880790849e-38
0.06520182633 -0.02264269383 -2.309999943 1.880790849e-38
0.1724519335 -0.07019092785 -2.348999977 1.880790849e-38
0.08927908171 0.008361650855 -2.332999945 1.880790849e-38
-0.004231736194 -0.003197335317 -2.226999998 1.880790849e-38
0.05979561898 -0.09366978413 -2.252000093 1.880790849e-38
0.003321204923 0.02742615707 -2.295000076 1.880790849e-38
0.1964579609 -0.06640147453 -2.354000092 1.880790849e-38
-0.0005241762814 0.08186025801 -2.313999891 1.880790849e-38
0.1697755776 -0.1659258524 -2.260999918 1.880790849e-38
0.1288758938 0.0005565784873 -2.342999935 1.880790849e-38
0.2697600284 -0.09481184618 -2.375 1.880790849e-38
0.2032959485 -0.1013320277 -2.342000008 1.880790849e-38
0.1763083057 -0.01515752598 -2.34800005 1.880790849e-38
-0.104149692 -0.1428598615 -2.381000042 1.880790849e-38
0.1011229793 0.02400737818 -2.335999966 1.880790849e-38
0.02671234375 0.1211527804 -2.325000048 1.880790849e-38
0.2941043484 -0.1029329154 -2.378999949 1.880790849e-38
0.07769803784 0.07485307425 -2.336999893 1.880790849e-38
-0.08569042016 -0.1890932238 -2.312999964 1.880790849e-38
0.1128520723 -0.02289754689 -2.335999966 1.880790849e-38
0.2984619132 -0.09110557652 -2.381999969 1.880790849e-38
0.1013827148 0.05933809207 -2.342000008 1.880790849e-38
-0.09601808947 -0.1585292559 -2.377000093 1.880790849e-38
0.04814379062 -0.03314159726 -2.236000061 1.880790849e-38
0.2337882407 -0.0232602215 -2.372999907 1.880790849e-38
-0.1035810456 -0.08660782536 -2.368000031 1.880790849e-38
0.1054373433 0.07118551182 -2.345000029 1.880790849e-38
0.2286544748 -0.07845065571 -2.361000061 1.880790849e-38
0.1448700508 -0.02694399516 -2.34800005 1.880790849e-38
-0.1351728197 -0.09841149829 -2.365999937 1.880790849e-38
0.07190846863 -0.2851468193 -2.404999971 1.880790849e-38
0.01499320458 0.1130307706 -2.318000078 1.880790849e-38
0.1690226655 0.0360395476 -2.355999947 1.880790849e-38
-0.05813603176 0.01206559654 -2.295000076 1.880790849e-38
-0.1232930964 -0.09049361506 -2.365999937 1.880790849e-38
0.003331334916 0.04291722118 -2.302000046 1.880790849e-38
0.1843247301 -0.02696694409 -2.349999905 1.880790849e-38
-0.02278592615 -0.01061179403 -2.219000101 1.880790849e-38
0.02750509722 -0.2678194504 -2.394000053 1.880790849e-38
-0.03395813787 0.0079602343 -2.220999956 1.880790849e-38
0.1011229793 0.0318248657 -2.335999966 1.880790849e-38
0.09641903177 -0.2902531627 -2.414000034 1.880790849e-38
0.2236560198 -0.1016781616 -2.349999905 1.880790849e-38
-0.01212181664 0.0701230389 -2.309999943 1.880790849e-38
0.2009936975 -0.007340296604 -2.361000061 1.880790849e-38
0.02962957853 -0.01076482492 -2.250999928 1.880790849e-38
0.1968752359 -0.01917576483 -2.358999968 1.880790849e-38
0.3360264472 -0.07153558393 -2.394000053 1.880790849e-38
0.05978317202 -0.2085135074 -2.403000116 1.880790849e-38
0.0716094732 -0.2999910441 -2.394999981 1.880790849e-38
-0.02280646177 -0.01805399467 -2.220999956 1.880790849e-38
0.007461880802 -0.259482288 -2.391000032 1.880790849e-38
0.2694192766 -0.1105680081 -2.371999979 1.880790849e-38
0.1005841227 -0.2380382601 -2.417000055 1.880790849e-38
-0.0835171549 -0.02314259863 -2.361000061 1.880790849e-38
0.003224245785 -0.02183892702 -2.227999926 1.880790849e-38
0.06796796588 -0.2411811077 -2.407999992 1.880790849e-38
0.200057246 -0.08201731491 -2.349999905 1.880790849e-38
0.1188610854 -0.3495889483 -2.378000021 1.880790849e-38
0.1644488808 -0.01122391988 -2.346999884 1.880790849e-38
0.05173950416 -0.2085135074 -2.403000116 1.880790849e-38
-0.01590494532 0.05053296826 -2.298000097 1.880790849e-38
0.06739363264 -0.09375296618 -2.253999949 1.880790849e-38
0.2045112051 -0.06251567731 -2.355999947 1.880790849e-38
-0.004398953543 0.08189563997 -2.315000057 1.880790849e-38
0.2198414401 -0.1893761818 -2.269999981 1.880790849e-38
-0.1074534653 -0.05882208212 -2.365999937 1.880790849e-38
0.1131419341 0.03974417503 -2.342000008 1.880790849e-38
-0.0191322118 0.01542752496 -2.226000071 1.880790849e-38
-0.0005051483026 -0.003201642489 -2.230000019 1.880790849e-38
-0.0677396733 -0.05477038914 -2.361999989 1.880790849e-38
0.05570308805 -0.04817181256 -2.239000082 1.880790849e-38
0.01491558607 0.03527470223 -2.305999994 1.880790849e-38
0.02275234809 0.1130307706 -2.318000078 1.880790849e-38
-0.1092779045 -0.1794572675 -2.240999937 1.880790849e-38
0.2653302809 -0.1831560409 -2.335999966 1.880790849e-38
-0.01950179166 0.03091208177 -2.269000053 1.880790849e-38
0.07293419063 -0.03037317155 -2.309999943 1.880790849e-38
0.0596587764 -0.292341846 -2.398000002 1.880790849e-38
0.09350329656 0.06322986767 -2.34100008 1.880790849e-38
0.03688377682 -0.02563581049 -2.233999968 1.880790849e-38
0.2284607729 -0.08233142598 -2.358999968 1.880790849e-38
0.1115540066 -0.3316348418 -2.39199996 1.880790849e-38
0.2687377728 -0.1419598561 -2.365999937 1.880790849e-38
0.07743206594 0.03952356243 -2.328999996 1.880790849e-38
0.3070785322 -0.08330865767 -2.387000084 1.880790849e-38
0.1487364491 0.0280475753 -2.346999884 1.880790849e-38
0.1706766485 -0.1211665526 -2.273000002 1.880790849e-38
0.04436174306 -0.04806423571 -2.233999968 1.880790849e-38
0.09688036371 -0.04229592074 -2.328000069 1.880790849e-38
0.08252005909 -0.0560624706 -2.255000114 1.880790849e-38
0.007205973506 0.06236555336 -2.309000015 1.880790849e-38
-0.01961352524 0.03490757718 -2.282000065 1.880790849e-38
0.2064193799 -0.1282686867 -2.332999945 1.880790849e-38
0.2577265614 -0.06696563263 -2.374000072 1.880790849e-38
-0.1074988885 -0.07865002344 -2.367000103 1.880790849e-38
0.09326364526 0.02009003118 -2.335000038 1.880790849e-38
0.0853378135 0.04347652413 -2.332000017 1.880790849e-38
-0.2166536667 -0.2078136892 -2.305999994 1.880790849e-38
0.03439106334 0.06648726817 -2.318000078 1.880790849e-38
0.01068212782 -0.02556695824 -2.227999926 1.880790849e-38
-0.02753135008 -0.4393537659 -2.022000074 1.880790849e-38
0.04597020556 0.03541237549 -2.315000057 1.880790849e-38
0.007177885929 0.03518292005 -2.299999952 1.880790849e-38
-0.03896456932 0.04666748822 -2.296999931 1.880790849e-38
-0.04193305997 -0.2441803178 -2.25 1.880790849e-38
0.1020320535 -0.3346701115 -2.357000113 1.880790849e-38
-0.09549295855 -0.02317200493 -2.364000082 1.880790849e-38
0.1685204781 -0.07412142405 -2.348999977 1.880790849e-38
0.04585105948 -0.00717862962 -2.309000015 1.880790849e-38
0.1001263481 -0.2047479329 -2.405999899 1.880790849e-38
0.1738668137 -0.1434797567 -2.265000105 1.880790849e-38
-0.1119313632 -0.1227331259 -2.377000093 1.880790849e-38
0.1804683763 -0.01124304974 -2.351000071 1.880790849e-38
-0.0835171549 -0.03499432515 -2.361000061 1.880790849e-38
0.1129970032 0.01621068263 -2.338999987 1.880790849e-38
0.2272986074 -0.1290384054 -2.346999884 1.880790849e-38
0.111320831 -0.167184346 -2.387000084 1.880790849e-38
0.103633742 -0.1716804137 -2.394000053 1.880790849e-38
0.02257566771 0.01209188259 -2.299999952 1.880790849e-38
0.1093154712 0.05154450727 -2.344000101 1.880790849e-38
-0.01183845001 -0.2674807667 -2.256000042 1.880790849e-38
0.1730392638 0.02816708199 -2.357000113 1.880790849e-38
0.07172906994 -0.1800672874 -2.398999929 1.880790849e-38
0.04205928542 0.008289969388 -2.312999964 1.880790849e-38
-0.003737685287 -0.4175290531 -1.967000008 1.880790849e-38
0.188418086 -0.03486092781 -2.351999998 1.880790849e-38
0.04205928542 0.01216022808 -2.312999964 1.880790849e-38
-0.1146906017 -0.1607974407 -2.351999998 1.880790849e-38
0.05983292553 -0.2368564318 -2.404999971 1.880790849e-38
0.1605207728 -0.03085966748 -2.346999884 1.880790849e-38
0.08881987245 -0.04993603289 -2.321000099 1.880790849e-38
0.09346334832 0.05537197997 -2.339999914 1.880790849e-38
0.2458066693 -0.04313166492 -2.374000072 1.880790849e-38
-0.0005244028428 0.08964285071 -2.315000057 1.880790849e-38
0.05193252764 -0.06312934947 -2.237999916 1.880790849e-38
0.2215928711 -0.01926518061 -2.369999886 1.880790849e-38
0.06996499477 0.09452634722 -2.339999914 1.880790849e-38
0.2284681639 -0.1585413547 -2.319000006 1.880790849e-38
0.05978317202 -0.2044926547 -2.403000116 1.880790849e-38
-0.1130286032 -0.1944564021 -2.240999937 1.880790849e-38
0.307207169 -0.07535204904 -2.388000011 1.880790849e-38
0.336166799 -0.09561026097 -2.394999981 1.880790849e-38
0.2460137365 -0.03124097628 -2.375999928 1.880790849e-38
0.07343936354 0.02779661811 -2.325999975 1.880790849e-38
0.2041639919 -0.07815160412 -2.351999998 1.880790849e-38
-0.1613775497 -0.1837832982 -2.344000101 1.880790849e-38
0.04773752633 -0.256870583 -2.404000044 1.880790849e-38
0.08530122189 0.03565712674 -2.33100009 1.880790849e-38
0.2648897931 -0.1261774053 -2.367000103 1.880790849e-38
-0.03073108507 -0.2562696544 -2.256999969 1.880790849e-38
0.2287513143 -0.07453163238 -2.361999989 1.880790849e-38
0.2461172949 -0.01932208368 -2.377000093 1.880790849e-38
-0.1050010238 -0.1774057207 -2.312000036 1.880790849e-38
-0.1038434994 -0.118605896 -2.374000072 1.880790849e-38
-0.02811200503 -0.3342441389 -2.354000092 1.880790849e-38
0.07145025035 -0.3137498593 -2.263000011 1.880790849e-38
0.1041334254 -0.3365990662 -2.315999985 1.880790849e-38
-0.08355252597 -0.03896139454 -2.361999989 1.880790849e-38
-0.04880505666 -0.01061657592 -2.220000029 1.880790849e-38
-0.1157633915 -0.118605896 -2.374000072 1.880790849e-38
-0.004360949662 0.03894657747 -2.295000076 1.880790849e-38
0.1368354298 -0.007290552859 -2.345000029 1.880790849e-38
-0.1312129119 -0.07465784859 -2.365999937 1.880790849e-38
0.2730434535 -0.1262840114 -2.368999958 1.880790849e-38
0.1169617019 -0.01119044434 -2.339999914 1.880790849e-38
0.08478889577 -0.0459730177 -2.316999912 1.880790849e-38
0.07763154883 0.06306780793 -2.335000038 1.880790849e-38
0.1853211927 -0.1700844065 -2.266000032 1.880790849e-38
0.1077304315 -0.3281802685 -2.395999908 1.880790849e-38
-0.000522137606 0.05840064293 -2.305000067 1.880790849e-38
0.1566593964 0.004486589322 -2.34800005 1.880790849e-38
-0.1117900942 -0.118605896 -2.374000072 1.880790849e-38
0.0655969872 0.03166138065 -2.323999882 1.880790849e-38
0.07965960636 -0.1678146894 -2.395999908 1.880790849e-38
0.2321490122 -0.1622815674 -2.316999912 1.880790849e-38
0.1080096497 -0.3365990662 -2.315999985 1.880790849e-38
0.1684487419 -0.07016104882 -2.34800005 1.880790849e-38
-0.06173722525 -0.4215406646 -2.03399992 1.880790849e-38
-0.04880505666 -0.006901930643 -2.220000029 1.880790849e-38
0.2907324545 -0.06724771168 -2.384000063 1.880790849e-38
0.1448083412 -0.05049541507 -2.346999884 1.880790849e-38
0.3360264472 -0.08355296351 -2.394000053 1.880790849e-38
-0.03450856265 -0.2600462104 -2.256999969 1.880790849e-38
0.06152150896 -0.003326549463 -2.316999912 1.880790849e-38
-0.05256792091 -0.006908148148 -2.221999884 1.880790849e-38
-0.04187714883 -0.2325752719 -2.246999979 1.880790849e-38
-0.03828604023 -0.2600462104 -2.256999969 1.880790849e-38
0.1847953498 0.008444084627 -2.355999947 1.880790849e-38
0.02267382269 0.04693160572 -2.309999943 1.880790849e-38
0.04164105643 -0.01861487975 -2.289999962 1.880790849e-38
0.0538121253 0.05099475576 -2.319000006 1.880790849e-38
0.1169617019 -0.01510588106 -2.339999914 1.880790849e-38
-0.0265356285 -0.02549810598 -2.221999884 1.880790849e-38
0.04369583629 -0.2326386234 -2.403000116 1.880790849e-38
0.1091755614 0.04364431634 -2.34100008 1.880790849e-38
0.1865755621 -0.116357676 -2.328999996 1.880790849e-38
0.07605994101 -0.2815901779 -2.40899992 1.880790849e-38
0.007218456625 0.0779546258 -2.312999964 1.880790849e-38
0.08881987245 -0.03440145279 -2.321000099 1.880790849e-38
0.1647291646 0.008426164687 -2.351000071 1.880790849e-38
-0.04197033554 -0.248165567 -2.252000093 1.880790849e-38
0.2279765526 -0.1018512389 -2.354000092 1.880790849e-38
0.108629683 -0.2500675729 -2.415999889 1.880790849e-38
0.01068692311 -0.05168636875 -2.229000092 1.880790849e-38
-0.1554904252 -0.3095440267 -1.970999956 1.880790849e-38
0.01886463315 0.09747419364 -2.316999912 1.880790849e-38
0.01882392498 0.05470941214 -2.312000036 1.880790849e-38
0.01071568912 -0.006948564894 -2.234999895 1.880790849e-38
0.05781776029 0.06277069627 -2.323999882 1.880790849e-38
0.05362648862 -0.003317935461 -2.311000109 1.880790849e-38
0.241425883 -0.05892152646 -2.369999886 1.880790849e-38
0.09282428138 -0.03444591504 -2.323999882 1.880790849e-38
0.01441753808 -0.02557843544 -2.229000092 1.880790849e-38
0.0273672261 -0.2784341293 -2.381999969 1.880790849e-38
0.2208448879 -0.05477038914 -2.361999989 1.880790849e-38
0.2420370921 -0.02726530204 -2.375999928 1.880790849e-38
0.06565344164 0.05114868492 -2.325999975 1.880790849e-38
0.04861747374 -0.3168348559 -2.257999897 1.880790849e-38
0.2169939316 -0.2207307653 -2.279999971 1.880790849e-38
0.2452889517 -0.07871647407 -2.368999958 1.880790849e-38
-0.0005044687262 -0.0218291257 -2.226999998 1.880790849e-38
0.1567261119 0.0162799886 -2.348999977 1.880790849e-38
0.1645189601 -0.0623034027 -2.34800005 1.880790849e-38
0.18849819 -0.0151898027 -2.352999926 1.880790849e-38
0.08548418865 0.05527732823 -2.335999966 1.880790849e-38
-0.0005200988766 0.03512173315 -2.296000004 1.880790849e-38
0.1566593964 -0.0426592874 -2.34800005 1.880790849e-38
-0.121390547 -0.1807385357 -2.256999969 1.880790849e-38
0.09346334832 0.0592874167 -2.339999914 1.880790849e-38
-0.1076351256 -0.1065091415 -2.369999886 1.880790849e-38
0.1584230611 -0.1659258524 -2.260999918 1.880790849e-38
-0.05297011044 -0.220507932 -2.239000082 1.880790849e-38
-0.01651401071 -0.2429700252 -2.385999918 1.880790849e-38
0.1726721802 0.008429748504 -2.351999998 1.880790849e-38
-0.05750273926 0.004337545767 -2.269999981 1.880790849e-38
-0.2042445797 -0.2887269486 -1.963999987 1.880790849e-38
0.08775303406 -0.1840047197 -2.398000002 1.880790849e-38
-0.02733575955 0.04267485613 -2.289000034 1.880790849e-38
0.2140202903 0.01248092641 -2.374000072 1.880790849e-38
0.1994613334 -0.09745483527 -2.342999935 1.880790849e-38
0.08143481044 0.03957447334 -2.332000017 1.880790849e-38
0.1248478262 0.004473213688 -2.34100008 1.880790849e-38
0.3153326104 -0.115357868 -2.388999939 1.880790849e-38
0.08019155809 -0.2375458238 -2.411999941 1.880790849e-38
-0.09957572507 -0.06280756281 -2.367000103 1.880790849e-38
0.2616998588 -0.0947719283 -2.374000072 1.880790849e-38
0.06915770782 -0.01493158275 -2.312999964 1.880790849e-38
0.08486208771 -0.02661121107 -2.319000006 1.880790849e-38
-0.0376414392 -0.01061179403 -2.219000101 1.880790849e-38
0.3321583546 -0.0996177273 -2.394999981 1.880790849e-38
0.08950869091 0.06317584561 -2.338999987 1.880790849e-38
0.2246077466 -0.07446852051 -2.359999895 1.880790849e-38
0.02275234809 0.1091521454 -2.318000078 1.880790849e-38
0.2648897931 -0.1222167902 -2.367000103 1.880790849e-38
0.05970853583 -0.184158192 -2.400000095 1.880790849e-38
0.2571837382 -0.1104281656 -2.368999958 1.880790849e-38
-0.1685144893 -0.2993459642 -1.968999982 1.880790849e-38
0.08105068685 -0.01886687269 -2.321000099 1.880790849e-38
0.2651135958 -0.1143921271 -2.368999958 1.880790849e-38
-0.1193331886 -0.09049361506 -2.365999937 1.880790849e-38
0.2865018535 -0.06719129318 -2.381999969 1.880790849e-38
-0.02318639772 -0.2639396488 -2.257999897 1.880790849e-38
0.2201319815 -0.2048397732 -2.273000002 1.880790849e-38
0.007184127861 0.04291722118 -2.302000046 1.880790849e-38
0.06912781041 -0.3050690438 -2.312000036 1.880790849e-38
0.07110294726 -0.08236521465 -2.252000093 1.880790849e-38
0.1408802333 -0.06227686362 -2.346999884 1.880790849e-38
0.2260353483 0.000564180087 -2.375 1.880790849e-38
-0.04137395303 -0.003187285362 -2.220000029 1.880790849e-38
0.05774313003 0.05103873776 -2.321000099 1.880790849e-38
0.0677986093 -0.1963691834 -2.40199995 1.880790849e-38
0.0677986093 -0.2003883626 -2.40199995 1.880790849e-38
-0.02696554885 -0.2563831906 -2.257999897 1.880790849e-38
0.01819700246 -0.01816779693 -2.234999895 1.880790849e-38
0.03347119833 -0.2939049462 -2.256000042 1.880790849e-38
0.3278758683 -0.1155510139 -2.392999887 1.880790849e-38
-0.09561414335 -0.06280756281 -2.367000103 1.880790849e-38
0.0331151228 -0.03681703532 -2.232000113 1.880790849e-38
-0.1833382739 -0.1861038287 -2.323999882 1.880790849e-38
0.2575094269 -0.09866106428 -2.371999979 1.880790849e-38
-0.04013503323 -0.2171797468 -2.365999937 1.880790849e-38
