# .PCD v0.7 - Point Cloud Data file format
VERSION 0.7
FIELDS x y z rgb
SIZE 4 4 4 4
TYPE F F F F
COUNT 1 1 1 1
WIDTH 840
HEIGHT 1
VIEWPOINT 0 0 0 1 0 0 0
POINTS 840
DATA ascii
0.003859543974 -0.3206732352 -2.667000055 8.758584837e-39
0.01252321305 -0.3796186368 -2.611999989 8.942976097e-39
0.008151581893 -0.3796186368 -2.611999989 8.850780467e-39
-0.004963311585 -0.3796186368 -2.611999989 8.850780467e-39
0.06635401864 -0.4091919824 -2.499000072 9.403954246e-39
-0.2650811824 -0.3150155127 -2.549000025 8.666389207e-39
-0.02243264565 -0.3793279504 -2.609999895 8.758584837e-39
-0.03115727161 -0.3791826246 -2.608999968 7.191259129e-39
0.03284131383 -0.4127117752 -2.494999886 8.666389207e-39
0.05374190545 -0.4087007521 -2.496000051 9.864932395e-39
-0.1306848726 -0.2998145902 -2.680000067 8.850780467e-39
-0.0047466891 -0.42156765 -2.497999907 8.113215428e-39
0.1175322903 -0.4061527906 -2.614000082 8.850780467e-39
0.1453772865 -0.3487445656 -2.642999887 1.097127995e-38
0.01195266871 -0.4248953068 -2.493000031 8.297606688e-39
0.08873320875 -0.4288244164 -2.540999889 9.957128025e-39
0.06204711664 -0.416719491 -2.493999958 8.389802318e-39
0.08240322034 -0.6680149311 -2.756000042 9.588345506e-39
0.1180718348 -0.3816533373 -2.625999928 8.942976097e-39
-0.1242216768 -0.3833973861 -2.638000011 7.00686787e-39
-0.1407516455 -0.3688637615 -2.538000107 8.113215428e-39
0.07002845526 -0.4477582702 -2.480999947 8.205411058e-39
-0.05520247374 -0.3943506053 -2.510999918 8.205411058e-39
-0.07576977773 -0.3397711001 -2.64199996 8.758584837e-39
0.07350024499 -0.3958846752 -2.604000092 8.850780467e-39
-0.1264912553 -0.3466194762 -2.594000101 9.496149876e-39
0.05307920557 -0.6657874687 -2.673000097 1.161664936e-38
-0.2862798659 -0.3876121477 -2.667000055 9.772736766e-39
-0.2875357562 -0.4875266162 -2.559000015 6.73028098e-39
-0.05520247374 -0.3985521701 -2.510999918 8.113215428e-39
-0.1173160273 -0.2910629304 -2.681999922 8.758584837e-39
-0.08173960618 -0.2652201235 -2.693000078 8.758584837e-39
0.00802674921 -0.3867160891 -2.572000027 8.850780467e-39
0.1204149046 -0.4400640498 -2.582000017 4.886368383e-39
0.1138066401 -0.3776903396 -2.628999949 8.850780467e-39
-0.128613539 -0.3620741313 -2.549999952 7.467846019e-39
0.1048866474 -0.3772593472 -2.625999928 8.850780467e-39
0.07830697653 -0.3762537097 -2.618999958 8.850780467e-39
0.07392362972 -0.3762537097 -2.618999958 8.758584837e-39
0.0695137326 -0.376110057 -2.618000031 8.850780467e-39
0.02555958348 -0.3871703179 -2.604000092 8.758584837e-39
-0.02257876038 -0.351029052 -2.627000093 8.942976097e-39
0.03442085768 -0.3756790646 -2.61500001 8.942976097e-39
0.03005569382 -0.3758227173 -2.615999937 8.850780467e-39
0.0212990423 -0.3758227173 -2.615999937 8.666389207e-39
-0.03608213534 -0.3407999475 -2.650000095 8.758584837e-39
0.07019781184 -0.4321955008 -2.486999989 8.574193577e-39
0.01692071653 -0.3758227173 -2.615999937 8.850780467e-39
-0.000565630175 -0.4088644825 -2.496999979 8.666389207e-39
0.01254239077 -0.3758227173 -2.615999937 9.035171727e-39
0.003784292208 -0.3756790646 -2.61500001 8.758584837e-39
-0.0005921334947 -0.3755354119 -2.614000082 8.850780467e-39
0.03689843453 -0.4238726876 -2.486999989 8.481997947e-39
-0.04256077919 -0.3856400925 -2.509000063 8.297606688e-39
-0.02244983622 -0.3752480722 -2.611999989 8.574193577e-39
-0.02682146738 -0.3752480722 -2.611999989 8.758584837e-39
0.003792975157 -0.6484497393 -2.621000051 1.060249743e-38
-0.0355647297 -0.3752480722 -2.611999989 7.467846019e-39
-0.03995164932 -0.375391725 -2.612999916 6.63808535e-39
-0.01729610871 -0.4008290106 -2.499000072 8.389802318e-39
-0.2520846571 -0.3232919379 -2.546999931 8.389802318e-39
-0.1288152832 -0.3669155986 -2.553999901 8.481997947e-39
-0.009313499387 -0.6534596812 -2.605999947 7.744432909e-39
0.05121259483 -0.413660659 -2.578999996 8.758584837e-39
-0.1366114262 -0.3606542341 -2.539999962 8.205411058e-39
-0.1825101354 -0.2357599558 -2.717000008 8.850780467e-39
0.1128542903 -0.4137895604 -2.607000113 8.850780467e-39
-0.1311725022 -0.2829289833 -2.690000057 8.850780467e-39
-0.2566494421 -0.3108722656 -2.549999952 8.389802318e-39
-0.1291179054 -0.3720611381 -2.559999943 8.481997947e-39
0.1168578463 -0.4212173832 -2.598999977 9.035171727e-39
-0.1535399702 -0.327046614 -2.611000061 8.666389207e-39
-0.1065610901 -0.3480848306 -2.638000011 8.758584837e-39
-0.01393746518 -0.3326831687 -2.655999899 8.850780467e-39
0.1587078665 -0.3754211924 -2.644000053 6.269302831e-39
0.1542826778 -0.3754211924 -2.644000053 8.389802318e-39
-0.1110603773 -0.330679079 -2.640000105 8.758584837e-39
0.1453222858 -0.3751371994 -2.64199996 9.219562986e-39
0.1228399939 -0.3740012951 -2.634000063 8.850780467e-39
0.1183416124 -0.3737173021 -2.631999969 9.035171727e-39
-0.04004338739 -0.3631068777 -2.618999958 8.666389207e-39
0.1005298592 -0.3730073705 -2.627000093 8.942976097e-39
0.0161445376 -0.4087007521 -2.496000051 8.574193577e-39
0.02623685358 -0.3079767634 -2.673000097 8.666389207e-39
0.04735079326 -0.3871703179 -2.604000092 8.942976097e-39
0.08727315304 -0.3727233775 -2.625 8.850780467e-39
0.08284819317 -0.3725813979 -2.624000072 8.850780467e-39
0.06523157228 -0.3722974049 -2.621999979 8.850780467e-39
0.0389013651 -0.3722974049 -2.621999979 8.758584837e-39
0.0869406842 -0.3888058178 -2.61500001 8.850780467e-39
0.06550523435 -0.3606421729 -2.632999897 8.758584837e-39
-0.0005932660862 -0.3718714324 -2.618999958 8.850780467e-39
-0.1238449669 -0.347029242 -2.630000114 8.942976097e-39
-0.009352812492 -0.3715874732 -2.617000103 8.574193577e-39
-0.0137328122 -0.3715874732 -2.617000103 8.942976097e-39
-0.02247562105 -0.3713034802 -2.61500001 8.666389207e-39
-0.02685227326 -0.3713034802 -2.61500001 8.758584837e-39
-0.05792852351 -0.347688977 -2.63499999 8.389802318e-39
-0.07115890036 -0.3565070762 -2.63499999 8.297606688e-39
-0.009567244358 -0.3084376281 -2.677000046 8.666389207e-39
-0.04440977219 -0.3717294528 -2.618000031 7.560041649e-39
-0.177766268 -0.2400408749 -2.713999987 8.850780467e-39
0.05766058429 -0.6715138314 -2.677999973 1.078688869e-38
0.04522327886 -0.4280340942 -2.486999989 8.758584837e-39
-0.1458622751 -0.2444018665 -2.711999893 8.942976097e-39
-0.1240804078 -0.3653251755 -2.63499999 8.758584837e-39
-0.1198065301 -0.3745692473 -2.638000011 7.191259129e-39
-0.02989139611 -0.4182233009 -2.503000021 4.701977123e-39
-0.1242216768 -0.3745692473 -2.638000011 8.205411058e-39
-0.1323602994 -0.3606542341 -2.539999962 5.070759642e-39
-0.1490707884 -0.3599443024 -2.535000086 8.297606688e-39
0.1146291324 -0.3316811238 -2.648000002 1.023371491e-38
0.07031071398 -0.4287225198 -2.490999937 8.758584837e-39
-0.1575563056 -0.3599443024 -2.535000086 8.297606688e-39
0.0202813128 -0.4245544202 -2.490999937 8.481997947e-39
-0.1661073177 -0.360086282 -2.536000013 8.389802318e-39
-0.1870575021 -0.2357599558 -2.717000008 8.850780467e-39
-0.1704861029 -0.360370275 -2.538000107 7.652237279e-39
0.09728047852 -0.6651567884 -2.926000118 9.680541136e-39
-0.2005361127 -0.3269107374 -2.542000055 8.389802318e-39
-0.1092674995 -0.5678610828 -2.497999907 4.701977123e-39
0.1587078665 -0.3709970833 -2.644000053 7.928824168e-39
0.1542243161 -0.3708567434 -2.642999887 8.666389207e-39
0.01712123051 -0.3448432625 -2.647000074 8.758584837e-39
0.09735361391 -0.4378442712 -2.54399991 8.666389207e-39
0.13185683 -0.3701551778 -2.638000011 9.035171727e-39
0.1273450589 -0.3698745315 -2.635999918 8.850780467e-39
-0.01863190148 -0.2921481752 -2.691999912 5.531737792e-39
0.02590312476 -0.3570482565 -2.638999939 8.758584837e-39
0.09170146001 -0.3684713669 -2.625999928 8.942976097e-39
0.08284819317 -0.3681907541 -2.624000072 8.850780467e-39
0.06961994015 -0.3679101077 -2.621999979 8.850780467e-39
0.06523157228 -0.3679101077 -2.621999979 8.850780467e-39
0.05643330691 -0.3677698013 -2.621000051 8.850780467e-39
-0.01823047224 -0.3475570363 -2.634000063 8.758584837e-39
0.0389013651 -0.3679101077 -2.621999979 8.758584837e-39
-0.0005932660862 -0.367489155 -2.618999958 8.758584837e-39
0.03451299724 -0.3679101077 -2.621999979 8.942976097e-39
0.03012462938 -0.3679101077 -2.621999979 8.942976097e-39
-0.1823086137 -0.2400408749 -2.713999987 8.758584837e-39
-0.05158889149 -0.3819046818 -2.539999962 8.389802318e-39
-0.1882159017 -0.3191554136 -2.548000097 8.574193577e-39
0.1028895691 -0.4304207765 -2.575999975 8.574193577e-39
0.01695305809 -0.3677698013 -2.621000051 8.942976097e-39
0.09576718056 -0.3891031975 -2.617000103 8.850780467e-39
-0.05075615965 -0.5889958763 -2.499000072 7.375650389e-39
-0.009352812492 -0.3672085422 -2.617000103 8.666389207e-39
-0.01810588955 -0.3670682023 -2.615999937 8.850780467e-39
-0.03560557768 -0.3669278959 -2.61500001 8.574193577e-39
-0.03998222989 -0.3669278959 -2.61500001 8.297606688e-39
-0.06819267416 -0.2786348987 -2.691999912 8.850780467e-39
-0.04440977219 -0.3673488486 -2.618000031 8.389802318e-39
-0.06226767483 -0.3693132724 -2.631999969 6.084911571e-39
-0.01333924647 -0.3907122806 -2.542000055 8.389802318e-39
0.1224668973 -0.3860473275 -2.625999928 8.758584837e-39
0.03434188002 -0.3791826246 -2.608999968 8.942976097e-39
-0.1449422843 -0.3559831919 -2.536999941 8.297606688e-39
-0.1222589716 -0.2696260476 -2.691999912 8.850780467e-39
-0.0175937207 -0.3864588444 -2.542000055 8.942976097e-39
-0.1491295892 -0.3558428854 -2.536000013 8.297606688e-39
-0.1704861029 -0.3561235317 -2.538000107 8.389802318e-39
-0.04674138226 -0.4022725443 -2.507999897 8.389802318e-39
-0.03833095555 -0.5950762648 -2.506999969 5.900520311e-39
0.03853045059 -0.390474972 -2.596999884 8.942976097e-39
-0.005022217465 -0.3443221301 -2.642999887 8.666389207e-39
-0.1454564702 -0.3359454042 -2.546000004 8.481997947e-39
-0.1361286012 -0.2567787375 -2.698999882 8.942976097e-39
-0.02151299417 -0.3889060488 -2.503000021 8.758584837e-39
0.09587695538 -0.3807813129 -2.619999886 8.758584837e-39
-0.1398384647 -0.4039774995 -2.599999905 8.666389207e-39
0.06757015902 -0.6537749292 -2.71600008 1.069469306e-38
0.132006782 -0.361737952 -2.641000032 9.035171727e-39
0.0776494476 -0.6806124192 -2.750999928 1.004932366e-38
0.1453222858 -0.3662956745 -2.64199996 8.850780467e-39
-0.0214958036 -0.3969649467 -2.500999928 8.297606688e-39
0.01611866528 -0.4205551107 -2.492000103 8.389802318e-39
-0.1629014087 -0.323913561 -2.621000051 8.758584837e-39
0.13190681 -0.3658797416 -2.638999939 9.035171727e-39
0.08692113995 -0.6166163264 -2.753000021 8.113215428e-39
0.1542243161 -0.3664343078 -2.642999887 8.942976097e-39
-0.05041285511 -0.2618757503 -2.704999924 4.701977123e-39
0.1274416833 -0.3657411084 -2.638000011 8.850780467e-39
0.1184765012 -0.3653251755 -2.63499999 9.035171727e-39
0.1095730155 -0.3650478758 -2.632999897 8.850780467e-39
-0.000565630175 -0.4213989002 -2.496999979 8.021019798e-39
-0.2521836467 -0.3148919377 -2.548000097 8.481997947e-39
0.1006446638 -0.364631976 -2.630000114 8.942976097e-39
0.08737289448 -0.3643546764 -2.628000021 8.850780467e-39
0.076972028 -0.7066156347 -2.726999998 6.177107201e-39
0.02530438005 -0.3919319062 -2.578000069 8.758584837e-39
0.06535596791 -0.3642160431 -2.627000093 8.758584837e-39
0.04782357423 -0.364631976 -2.630000114 8.942976097e-39
0.0390497302 -0.3649092426 -2.631999969 8.942976097e-39
0.09069758286 -0.5836288325 -2.727999926 9.035171727e-39
-0.0005941721701 -0.3636614439 -2.622999907 8.758584837e-39
-0.009674460291 -0.2801874814 -2.707000017 5.439542162e-39
-0.02251000015 -0.3631068777 -2.618999958 8.758584837e-39
0.1407937903 -0.3704358241 -2.640000105 8.850780467e-39
-0.02689334696 -0.3631068777 -2.618999958 8.666389207e-39
0.06584952489 -0.4517275021 -2.480000019 8.113215428e-39
-0.1536833907 -0.2784279041 -2.690000057 8.850780467e-39
-0.03566004058 -0.3631068777 -2.618999958 8.758584837e-39
-0.04446066228 -0.3633841773 -2.621000051 8.758584837e-39
-0.05777463436 -0.3643546764 -2.628000021 8.666389207e-39
-0.07115890036 -0.3653251755 -2.63499999 5.531737792e-39
-0.09787898409 -0.3309295752 -2.64199996 8.666389207e-39
-0.07565506342 -0.3657411084 -2.638000011 4.701977123e-39
0.07745186716 -0.6146004943 -2.743999958 1.078688869e-38
-0.1196702822 -0.3653251755 -2.63499999 8.666389207e-39
0.06151614706 -0.3453643638 -2.651000023 8.942976097e-39
0.1407404505 -0.3791269694 -2.638999939 8.850780467e-39
0.1359620307 -0.3869293915 -2.631999969 8.850780467e-39
-0.128613539 -0.3535404871 -2.549999952 5.716129052e-39
-0.1377946787 -0.3852125288 -2.562000036 7.375650389e-39
0.01733467987 -0.2998145902 -2.680000067 1.004932366e-38
-0.06243327963 -0.3438010287 -2.638999939 8.574193577e-39
-0.01728918635 -0.409028213 -2.497999907 8.297606688e-39
-0.2077867328 -0.2605203919 -2.690999985 8.850780467e-39
-0.1944946746 -0.3077737377 -2.632999897 8.758584837e-39
-0.06271717679 -0.3276210762 -2.651000023 8.297606688e-39
-0.2142259546 -0.3045008066 -2.605000019 9.035171727e-39
-0.02567138926 -0.4093557128 -2.5 8.297606688e-39
-0.2364174745 -0.2994744998 -2.562000036 8.666389207e-39
-0.2613265824 -0.2985393567 -2.553999901 8.758584837e-39
-0.2697700382 -0.2984224743 -2.552999973 8.850780467e-39
0.08458014991 -0.4208171412 -2.54399991 8.666389207e-39
-0.2040861097 -0.3067254885 -2.586999893 9.127367356e-39
0.07094755026 -0.3078615267 -2.671999931 6.361498461e-39
0.1073257948 -0.4266066996 -2.578999996 8.758584837e-39
-0.1197611177 -0.3700148714 -2.637000084 8.297606688e-39
0.0575529309 -0.3079767634 -2.673000097 5.070759642e-39
0.03071057891 -0.3079767634 -2.673000097 8.205411058e-39
0.003875462484 -0.3085528373 -2.677999973 8.850780467e-39
0.06460960602 -0.3991659029 -2.596999884 8.942976097e-39
0.06300125709 -0.6535341768 -2.714999914 1.124786684e-38
0.1452672851 -0.3838333984 -2.641000032 8.850780467e-39
-0.0363816829 -0.3078615267 -2.671999931 7.744432909e-39
-0.1117755372 -0.310579139 -2.657000065 8.850780467e-39
0.0751655735 -0.3291040941 -2.663000107 8.850780467e-39
-0.04590253863 -0.2529168751 -2.70600009 9.957128025e-39
-0.04976056591 -0.3076311081 -2.670000076 8.021019798e-39
0.03034292441 -0.3528997735 -2.641000032 8.942976097e-39
0.05773374855 -0.4282061904 -2.487999916 8.481997947e-39
-0.03608213534 -0.3363657987 -2.650000095 8.574193577e-39
0.02035458984 -0.4009893947 -2.5 8.389802318e-39
-0.08987780384 -0.3072854527 -2.667000055 8.850780467e-39
-0.2289366455 -0.2768753213 -2.674999952 8.942976097e-39
0.07447983075 -0.4245544202 -2.490999937 8.758584837e-39
-0.09987954383 -0.247471105 -2.696000099 9.588345506e-39
0.1347739125 -0.4141069824 -2.608999968 6.63808535e-39
-0.1327250703 -0.3446009495 -2.546999931 8.758584837e-39
0.1257991485 -0.4220277469 -2.604000092 8.942976097e-39
-0.0006014209496 -0.3325579206 -2.654999971 8.850780467e-39
-0.04992829488 -0.2997027005 -2.678999901 8.021019798e-39
0.09205066555 -0.3566423632 -2.635999918 9.035171727e-39
-0.1164849375 -0.3068245881 -2.663000107 8.758584837e-39
-0.1335067311 -0.3852125288 -2.562000036 8.021019798e-39
-0.1669413174 -0.2780138902 -2.686000109 8.666389207e-39
0.1497441271 -0.3618749121 -2.64199996 9.035171727e-39
0.0506168692 -0.4131139399 -2.549000025 9.957128025e-39
-0.1344137581 -0.3070550067 -2.664999962 8.850780467e-39
-0.1387698806 -0.3068245881 -2.663000107 8.758584837e-39
-0.1520837057 -0.3067093514 -2.661999941 8.574193577e-39
-0.148515716 -0.2906288376 -2.677999973 8.758584837e-39
0.02873443802 -0.4011497789 -2.500999928 8.758584837e-39
0.04844182428 -0.3292276691 -2.664000034 8.850780467e-39
-0.1246454838 -0.3182684889 -2.647000074 8.666389207e-39
0.09129603152 -0.6012641289 -2.746000051 8.205411058e-39
0.07839636482 -0.4481192369 -2.48300004 8.666389207e-39
-0.09342177174 -0.3396425056 -2.641000032 8.574193577e-39
-0.169585842 -0.3061332774 -2.657000065 8.850780467e-39
0.07001822634 -0.3523652862 -2.637000084 9.035171727e-39
-0.1905932724 -0.3041745822 -2.640000105 8.758584837e-39
-0.1740327885 -0.3061332774 -2.657000065 8.758584837e-39
0.1142828253 -0.3571835757 -2.640000105 8.942976097e-39
-0.212121787 -0.3033680347 -2.632999897 8.850780467e-39
-0.2374461457 -0.2808254241 -2.670000076 8.297606688e-39
-0.1834460094 -0.356544451 -2.540999889 6.54588972e-39
-0.1504012733 -0.2398639758 -2.711999893 8.758584837e-39
0.07758938892 -0.4162269963 -2.595000029 8.942976097e-39
-0.2141386359 -0.3025757607 -2.552000046 9.588345506e-39
0.03965802957 -0.3079767634 -2.673000097 1.106347558e-38
-0.009381403067 -0.3595464265 -2.625 8.758584837e-39
-0.1660526434 -1.004535493 -2.471999884 5.255150902e-39
-0.1275640336 -0.3801999749 -2.615999937 8.021019798e-39
0.1271035151 -0.3823800359 -2.631000042 8.850780467e-39
0.03478941592 -0.3575894367 -2.642999887 8.850780467e-39
-0.2257182337 -0.2559225079 -2.690000057 9.588345506e-39
-0.2349410158 -0.3231650166 -2.546000004 8.205411058e-39
-0.0137328122 -0.3672085422 -2.617000103 8.758584837e-39
-0.06674877474 -0.3653251755 -2.63499999 7.375650389e-39
-0.2615312329 -0.2944962877 -2.555999994 8.850780467e-39
-0.03684462564 -0.2529168751 -2.70600009 6.361498461e-39
0.03689843453 -0.4280340942 -2.486999989 8.666389207e-39
-0.04551238399 -0.2956608394 -2.683000088 7.099063499e-39
-0.0005907743418 -0.3877650419 -2.60800004 8.758584837e-39
-0.1377408986 -0.3422099004 -2.561000109 8.389802318e-39
0.08925702122 -0.4912319305 -2.555999994 6.269302831e-39
0.05374190545 -0.4128772182 -2.496000051 8.850780467e-39
-0.06390007224 -0.2614885084 -2.700999975 4.794172753e-39
0.02180383642 -0.3040718374 -2.677999973 8.389802318e-39
0.01732174293 -0.3040718374 -2.677999973 8.574193577e-39
-0.1536833907 -0.2739268248 -2.690000057 8.850780467e-39
-0.01367508844 -0.3874676622 -2.605999947 8.666389207e-39
-0.02271627675 -0.3443221301 -2.642999887 8.758584837e-39
-0.004959511016 -0.6544626762 -2.609999895 9.588345506e-39
-0.005100125738 -0.3047531084 -2.684000015 8.850780467e-39
0.1139365078 -0.3693132724 -2.631999969 8.850780467e-39
-0.1757665795 -0.3240535261 -2.552999973 8.297606688e-39
0.1362203231 -0.378839664 -2.637000084 8.942976097e-39
0.1043274674 -0.4058420241 -2.611999989 8.758584837e-39
-0.1255401725 -0.307170216 -2.665999889 8.758584837e-39
-0.06319033497 -0.3032770302 -2.671000004 8.666389207e-39
0.04511417489 -0.4394555363 -2.480999947 8.481997947e-39
-0.05801645941 -0.3438010287 -2.638999939 8.666389207e-39
-0.05471672286 -0.2788419179 -2.694000006 8.574193577e-39
-0.1494824219 -0.3439244823 -2.542000055 8.574193577e-39
-0.07654410789 -0.3030499309 -2.66899991 8.666389207e-39
0.08727315304 -0.3683310605 -2.625 8.758584837e-39
-0.2245434971 -0.2725011896 -2.676000118 8.850780467e-39
-0.1663038183 -0.3477670054 -2.539000034 8.389802318e-39
-0.08113255437 -0.2990314958 -2.673000097 8.758584837e-39
-0.1260581626 -0.3039583013 -2.677000046 8.850780467e-39
-0.009531505714 -0.3206732352 -2.667000055 8.850780467e-39
0.06098243469 -0.3643546764 -2.628000021 8.850780467e-39
-0.1655739603 -0.3024822231 -2.664000034 8.850780467e-39
-0.121895651 -0.2957710293 -2.684000015 8.758584837e-39
-0.1991280796 -0.2993029673 -2.635999918 8.850780467e-39
-0.1957504468 -0.29645846 -2.650000095 8.758584837e-39
-0.2034626689 -0.2991894312 -2.63499999 8.758584837e-39
-0.07264419231 -0.2784279041 -2.690000057 8.850780467e-39
0.05192746652 -0.3756790646 -2.61500001 8.758584837e-39
-0.2322881319 -0.2965779103 -2.611999989 8.758584837e-39
-0.2402931758 -0.295669567 -2.604000092 9.588345506e-39
0.02982591044 -0.3903246268 -2.595999956 8.942976097e-39
-0.04119010599 -0.2833496901 -2.694000006 5.347346532e-39
-0.121895651 -0.2912799897 -2.684000015 8.850780467e-39
-0.2107128034 -0.2809305946 -2.671000004 8.758584837e-39
0.1003385152 -0.3810719993 -2.621999979 8.942976097e-39
-0.01810588955 -0.3714454598 -2.615999937 8.850780467e-39
-0.2574546305 -0.2904465252 -2.558000088 9.035171727e-39
-0.2699813838 -0.2943810784 -2.555000067 7.652237279e-39
-0.08592654231 -0.2821927401 -2.683000088 8.850780467e-39
-0.1979194089 -0.3150220556 -2.619999886 9.311758616e-39
0.07403653186 -0.3680504142 -2.622999907 8.850780467e-39
-0.2162818737 -0.3030224069 -2.630000114 8.574193577e-39
-0.02713979157 -0.3443221301 -2.642999887 8.942976097e-39
-0.1923259333 -0.2891095001 -2.664000034 8.758584837e-39
0.05675627221 -0.361053086 -2.635999918 9.035171727e-39
0.07842657328 -0.3724393845 -2.622999907 8.850780467e-39
0.00838252295 -0.3004858215 -2.686000109 8.481997947e-39
-0.05471672286 -0.2743341457 -2.694000006 8.021019798e-39
-0.2424155811 -0.2850940968 -2.627000093 8.205411058e-39
-0.04083844582 -0.3122156045 -2.671000004 7.836628538e-39
-0.005109626482 -0.3008214106 -2.688999891 8.666389207e-39
-0.2062424256 -0.2809305946 -2.671000004 8.850780467e-39
0.07123962891 -0.6862357194 -2.683000088 8.758584837e-39
-0.1359268571 -0.2699265245 -2.694999933 9.035171727e-39
0.02627611511 -0.7160563654 -2.677000046 4.794172753e-39
-0.1643811427 -0.2358467216 -2.717999935 8.850780467e-39
-0.03684462564 -0.2619725781 -2.70600009 5.439542162e-39
0.08205885907 -0.4081709469 -2.598999977 8.942976097e-39
-0.04513919137 -0.3199518056 -2.661000013 8.205411058e-39
-0.0214958036 -0.3927801145 -2.500999928 8.666389207e-39
-0.1393951968 -0.2992552218 -2.674999952 8.758584837e-39
-0.02989139611 -0.414035122 -2.503000021 8.205411058e-39
-0.1084596359 -0.282403081 -2.684999943 8.758584837e-39
0.0969015989 -0.340542728 -2.648000002 8.850780467e-39
0.06007744344 -0.4109325356 -2.588999987 8.850780467e-39
-0.1745567796 -0.2981365117 -2.664999962 8.666389207e-39
-0.1790171153 -0.2981365117 -2.664999962 8.942976097e-39
-0.1614781729 -0.2986958801 -2.670000076 8.758584837e-39
-0.1661073177 -0.3643296786 -2.536000013 5.623933422e-39
-0.2092095222 -0.3186543613 -2.54399991 8.666389207e-39
-0.2660171366 -0.2861663167 -2.558000088 8.021019798e-39
-0.2047937153 -0.2443117544 -2.710999966 8.850780467e-39
-0.1929756877 -0.2811409605 -2.673000097 8.850780467e-39
-0.1587148034 -0.2658110141 -2.698999882 8.850780467e-39
-0.07562638655 -0.3567776825 -2.637000084 8.205411058e-39
0.1084494052 -0.4136308116 -2.605999947 8.942976097e-39
-0.2738282552 -0.3067257008 -2.551000118 8.850780467e-39
-0.1127431087 -0.2953302436 -2.680000067 8.758584837e-39
0.03922776973 -0.3533006469 -2.644000053 8.850780467e-39
-0.0006077636452 -0.3046395723 -2.683000088 8.758584837e-39
-0.03231566915 -0.2665004296 -2.70600009 5.347346532e-39
0.074360234 -0.4321955008 -2.486999989 8.758584837e-39
0.1255092867 -0.4254024649 -2.59800005 8.389802318e-39
-0.1157850641 -0.3226976178 -2.647000074 8.758584837e-39
-0.009627999968 -0.2968730067 -2.694000006 6.63808535e-39
0.05766058429 -0.6849568312 -2.677999973 7.836628538e-39
0.09117765586 -0.3969488766 -2.611000061 9.035171727e-39
-0.09899040224 -0.2989196061 -2.671999931 8.850780467e-39
-0.0006102553895 -0.2923652345 -2.694000006 1.078688869e-38
-0.05786257027 -0.3516971532 -2.631999969 8.389802318e-39
0.1159585948 -0.4395527402 -2.578999996 8.113215428e-39
-0.04451155237 -0.3594094663 -2.624000072 8.666389207e-39
-0.02760187736 -0.296211815 -2.687999964 5.716129052e-39
-0.2030766013 -0.3074230904 -2.630000114 8.850780467e-39
-0.04105249889 -0.2958812191 -2.684999943 6.82247661e-39
-0.1461420515 -0.3289684016 -2.558000088 9.864932395e-39
-0.2572533274 -0.2944962877 -2.555999994 8.942976097e-39
-0.05000284603 -0.2956608394 -2.683000088 7.744432909e-39
-0.03115727161 -0.3835481693 -2.608999968 6.084911571e-39
-0.05447299411 -0.2955506233 -2.681999922 8.389802318e-39
0.1453222858 -0.3795579618 -2.64199996 8.850780467e-39
-0.04520704347 -0.3159735017 -2.664999962 8.205411058e-39
0.01195266871 -0.4332381993 -2.493000031 6.361498461e-39
-0.07234713006 -0.2952200274 -2.678999901 8.758584837e-39
-0.05420895624 -0.3075158713 -2.66899991 8.205411058e-39
-0.1622643969 -0.2821927401 -2.683000088 8.850780467e-39
0.09788937174 -0.4316934052 -2.558000088 9.035171727e-39
-0.1541868209 -0.324037136 -2.621999979 8.942976097e-39
-0.09465985201 -0.2948894578 -2.676000118 8.850780467e-39
-0.1880083024 -0.2937874541 -2.665999889 8.758584837e-39
-0.1939037375 -0.3112309395 -2.625 8.758584837e-39
-0.0907202981 -0.2651216221 -2.691999912 8.850780467e-39
-0.2009305485 -0.3147683333 -2.546999931 8.389802318e-39
-0.1808307939 -0.2651216221 -2.691999912 8.758584837e-39
0.06200344749 -0.3123324869 -2.671999931 1.078688869e-38
0.1278281581 -0.3447129638 -2.645999908 8.942976097e-39
0.07324621012 -0.4162269963 -2.595000029 8.942976097e-39
0.0368390892 -0.4398098096 -2.48300004 8.205411058e-39
-0.2657051518 -0.2943810784 -2.555000067 8.758584837e-39
-0.2047937153 -0.2397755368 -2.710999966 9.219562986e-39
-0.1350694355 -0.2995908375 -2.677999973 8.666389207e-39
-0.02778671266 -0.2529168751 -2.70600009 6.91467224e-39
-0.1308799221 -0.2957710293 -2.684000015 8.850780467e-39
-0.20933104 -0.2397755368 -2.710999966 8.389802318e-39
0.03451299724 -0.3722974049 -2.621999979 8.758584837e-39
-0.1723941828 -0.2614885084 -2.700999975 8.850780467e-39
0.09609652248 -0.372865357 -2.625999928 8.758584837e-39
-0.005010816663 -0.3479528899 -2.637000084 8.666389207e-39
-0.02243264565 -0.3836951683 -2.609999895 8.850780467e-39
-0.237475212 -0.2888285688 -2.621000051 9.127367356e-39
0.02590312476 -0.3526325139 -2.638999939 8.666389207e-39
-0.1032301261 -0.3027092954 -2.665999889 8.758584837e-39
0.07421073985 -0.4437857345 -2.482000113 8.758584837e-39
0.07758938892 -0.4118848772 -2.595000029 8.942976097e-39
-0.2457788291 -0.2882775669 -2.615999937 9.772736766e-39
0.02633500856 -0.291171473 -2.683000088 6.269302831e-39
0.0441482639 -0.3036176658 -2.674000025 7.375650389e-39
-0.2204759228 -0.2685243149 -2.680999994 8.758584837e-39
0.07256723903 -0.6212827942 -2.73300004 1.115567121e-38
0.1072841825 -0.4566370121 -2.578000069 8.297606688e-39
-0.2313140778 -0.3026943163 -2.552999973 8.666389207e-39
-0.04551238399 -0.291171473 -2.683000088 6.82247661e-39
0.09107289337 -0.4052205283 -2.60800004 8.758584837e-39
0.05218561476 -0.3643546764 -2.628000021 8.942976097e-39
-0.06340325784 -0.2908458969 -2.680000067 8.758584837e-39
-0.2285530191 -0.300409615 -2.569999933 9.127367356e-39
0.1092400976 -0.3815080115 -2.625 8.758584837e-39
-0.08869830223 -0.6423631196 -2.631999969 5.347346532e-39
-0.2046294539 -0.335153697 -2.539999962 8.205411058e-39
-0.01407914975 -0.3046395723 -2.683000088 7.836628538e-39
0.08268507833 -0.4405183141 -2.486999989 8.481997947e-39
-0.07680222022 -0.2906288376 -2.677999973 8.758584837e-39
-0.08125396328 -0.2905203209 -2.677000046 8.850780467e-39
-0.17935299 -0.2942282661 -2.670000076 8.850780467e-39
0.09598673893 -0.3768283548 -2.622999907 8.850780467e-39
-0.1352711796 -0.2910629304 -2.681999922 8.758584837e-39
-0.03670846678 -0.2835600561 -2.696000099 4.886368383e-39
0.0827218943 -0.3763973624 -2.619999886 8.850780467e-39
0.003791527769 -0.3676294614 -2.619999886 8.942976097e-39
-0.1661333357 -0.2900862282 -2.673000097 8.758584837e-39
-0.1490707884 -0.3641860259 -2.535000086 8.389802318e-39
-0.01390598098 -0.3363657987 -2.650000095 8.850780467e-39
-0.04573290636 -0.2745378183 -2.696000099 5.347346532e-39
-0.2219829862 -0.3399382738 -2.54399991 7.00686787e-39
-0.1522853969 -0.5513412165 -2.517999887 5.900520311e-39
-0.2327156672 -0.2894350761 -2.667000055 8.942976097e-39
-0.09876811684 -0.3027092954 -2.665999889 8.850780467e-39
0.1144126827 -0.3487445656 -2.642999887 8.850780467e-39
-0.07545431166 -0.6377167217 -2.631000042 6.91467224e-39
0.1178470273 -0.3940835455 -2.621000051 8.850780467e-39
-0.005128628423 -0.2883917057 -2.698999882 5.347346532e-39
0.07039539227 -0.4208926104 -2.493999958 8.666389207e-39
-0.1627564465 -0.3279395542 -2.549999952 8.389802318e-39
-0.05203572593 -0.3809256274 -2.562000036 5.255150902e-39
-0.1544260992 -0.2571593092 -2.703000069 8.758584837e-39
0.03956900981 -0.3206732352 -2.667000055 8.942976097e-39
-0.08082902847 -0.3068245881 -2.663000107 8.758584837e-39
-0.04111365639 -0.2873231935 -2.688999891 5.623933422e-39
0.09069758286 -0.5881934955 -2.727999926 9.311758616e-39
-0.1583642873 -0.3319458412 -2.548000097 8.758584837e-39
0.003614975735 -0.4299272748 -2.497999907 7.00686787e-39
-0.06799002394 -0.2867889501 -2.684000015 8.850780467e-39
-0.190505805 -0.3144076811 -2.578999996 1.004932366e-38
0.09159669752 -0.3768283548 -2.622999907 8.758584837e-39
-0.04559719811 -0.2872163499 -2.687999964 6.54588972e-39
-0.0142155859 -0.2713287581 -2.709000111 6.269302831e-39
0.003613528692 -0.4088644825 -2.496999979 8.666389207e-39
-0.1356242349 -0.2828237878 -2.688999891 8.850780467e-39
0.1354971117 -0.3987732064 -2.622999907 8.942976097e-39
0.01286362246 -0.3001502059 -2.683000088 8.850780467e-39
-0.1531120775 -0.2863615503 -2.680000067 8.850780467e-39
-0.1619619964 -0.2861478377 -2.677999973 8.942976097e-39
-0.2217094782 -0.2519822239 -2.696000099 7.191259129e-39
-0.00942071532 -0.3478209177 -2.635999918 8.850780467e-39
-0.1795545117 -0.2856135943 -2.673000097 8.942976097e-39
-0.09370475718 -0.3229414216 -2.648999929 8.758584837e-39
-0.1129534451 -0.282403081 -2.684999943 8.850780467e-39
-0.1798984327 -0.3237996836 -2.551000118 8.666389207e-39
-0.1883609142 -0.2853998817 -2.671000004 8.942976097e-39
0.111598909 -0.4436959909 -2.578000069 8.758584837e-39
0.07818737978 -0.380054649 -2.61500001 9.035171727e-39
-0.1620543651 -0.3477670054 -2.539000034 8.297606688e-39
-0.1926868965 -0.2851861691 -2.66899991 8.758584837e-39
0.008248326998 -0.6494701834 -2.642999887 5.531737792e-39
-0.2015454209 -0.2850793255 -2.667999983 8.850780467e-39
-0.2040861097 -0.3110542213 -2.586999893 9.864932395e-39
-0.2059335678 -0.2849724819 -2.667000055 8.758584837e-39
-0.210397251 -0.2849724819 -2.667000055 8.758584837e-39
-0.2342446235 -0.2814463891 -2.634000063 9.311758616e-39
-0.1867821173 -0.2444920002 -2.713000059 8.942976097e-39
-0.1408070992 -0.3520154218 -2.539000034 8.297606688e-39
-0.2380188447 -0.2806984331 -2.627000093 7.652237279e-39
0.1029295079 -0.4693958549 -2.576999903 6.084911571e-39
0.008139098773 -0.3834011703 -2.60800004 8.850780467e-39
-0.1617990642 -0.3641860259 -2.535000086 7.375650389e-39
-0.1077325368 -0.3028228586 -2.667000055 8.850780467e-39
-0.2327156672 -0.2849724819 -2.667000055 9.035171727e-39
-0.1804277667 -0.2690251177 -2.686000109 8.758584837e-39
0.03273601237 -0.4238726876 -2.486999989 8.481997947e-39
-0.01818894468 -0.3555600027 -2.628000021 8.942976097e-39
-0.2654971537 -0.2984224743 -2.552999973 8.666389207e-39
-0.1458537542 -0.3162244574 -2.630000114 8.666389207e-39
-0.1487375439 -0.2865752375 -2.681999922 8.574193577e-39
-0.07156398232 -0.3274975012 -2.650000095 8.758584837e-39
0.08620924959 -0.4202449623 -2.592999935 8.942976097e-39
-0.05463548156 -0.2829289833 -2.690000057 8.389802318e-39
-0.02277644272 -0.3363657987 -2.650000095 8.666389207e-39
-0.04976056591 -0.3120987221 -2.670000076 8.113215428e-39
0.003703251925 -0.3933252204 -2.559000015 9.588345506e-39
0.07854617715 -0.3642160431 -2.627000093 8.942976097e-39
-0.02148720934 -0.4135388719 -2.5 8.297606688e-39
-0.02302569268 -0.3041853736 -2.678999901 7.191259129e-39
-0.04593646266 -0.2440413964 -2.707999945 9.588345506e-39
0.1233996222 -0.3447129638 -2.645999908 9.035171727e-39
-0.1333545923 -0.3223318832 -2.644000053 8.666389207e-39
-0.1542812084 -0.3280681793 -2.551000118 9.588345506e-39
-0.05911567134 -0.2828237878 -2.688999891 8.850780467e-39
0.07944316344 -0.3328084467 -2.657000065 8.758584837e-39
-0.1823086137 -0.2445821123 -2.713999987 8.942976097e-39
0.06214267777 -0.6625518315 -2.677999973 1.152445373e-38
0.1057254269 -0.3404141335 -2.647000074 9.035171727e-39
-0.1215777427 -0.3039583013 -2.677000046 8.758584837e-39
-0.06809134905 -0.2827186174 -2.687999964 8.758584837e-39
-0.03210070755 -0.2917140825 -2.687999964 5.808324681e-39
0.03950966448 -0.3291040941 -2.663000107 8.666389207e-39
-0.1831928657 -0.9953373908 -2.480000019 4.701977123e-39
-0.2580095696 -0.4934233066 -2.480999947 6.63808535e-39
-0.1333545923 -0.3179077741 -2.644000053 8.850780467e-39
0.03915358541 -0.3614639991 -2.638999939 9.035171727e-39
0.01726999829 -0.3165663361 -2.670000076 8.942976097e-39
-0.1038883904 -0.2821927401 -2.683000088 8.942976097e-39
-0.1175347423 -0.2826134469 -2.687000036 8.942976097e-39
0.06448521633 -0.4114087064 -2.592000008 8.758584837e-39
0.04097830776 -0.4354796536 -2.482000113 8.297606688e-39
-0.1221227237 -0.2828237878 -2.688999891 8.850780467e-39
0.1453222858 -0.370716437 -2.64199996 8.850780467e-39
-0.0586540039 -0.307400662 -2.667999983 8.297606688e-39
-0.1367189992 -0.3481779185 -2.542000055 8.389802318e-39
0.1028895691 -0.4261104495 -2.575999975 8.850780467e-39
-0.0006091227441 -0.3008214106 -2.688999891 8.942976097e-39
0.1206947243 -0.4280954499 -2.588000059 9.127367356e-39
-0.1445714622 -0.2827186174 -2.687999964 8.850780467e-39
-0.07275221202 -0.2698263735 -2.694000006 8.666389207e-39
-0.03825450959 -0.4013102012 -2.502000093 8.389802318e-39
0.06647549888 -0.3123324869 -2.671999931 6.73028098e-39
-0.170224102 -0.2983602644 -2.667000055 8.666389207e-39
-0.1666305484 -0.2819823742 -2.680999994 8.758584837e-39
-0.04097605292 -0.2998145902 -2.680000067 6.82247661e-39
-0.1842347797 -0.2814564969 -2.676000118 8.850780467e-39
-0.2533713095 -0.2906735975 -2.559999943 8.481997947e-39
-0.0005812603255 -0.3858139458 -2.565999985 8.758584837e-39
-0.2149414912 -0.2850793255 -2.667999983 8.850780467e-39
-0.2291380999 -0.2937735345 -2.625999928 8.942976097e-39
-0.188572478 -0.281246131 -2.674000025 8.850780467e-39
-0.16689332 -0.3319458412 -2.548000097 8.389802318e-39
-0.201847584 -0.281035765 -2.671999931 8.850780467e-39
-0.2220702581 -0.3187796393 -2.545000076 8.389802318e-39
-0.1687561025 -0.313483665 -2.644000053 8.942976097e-39
-0.1665003189 -0.3439244823 -2.542000055 8.297606688e-39
-0.1932644616 -0.2770823406 -2.677000046 8.758584837e-39
0.008366918493 -0.3044124729 -2.680999994 8.850780467e-39
-0.2607126794 -0.3191554136 -2.548000097 8.666389207e-39
0.07192998744 -0.6112941077 -2.709000111 1.087908432e-38
0.08684750049 -0.4530025339 -2.486999989 7.00686787e-39
-0.1448851571 -0.360086282 -2.536000013 8.574193577e-39
-0.2196535591 -0.2809305946 -2.671000004 8.574193577e-39
0.02990633435 -0.3870216103 -2.602999926 8.850780467e-39
-0.02778671266 -0.2574447266 -2.70600009 6.269302831e-39
-0.2242078409 -0.281035765 -2.671999931 8.758584837e-39
-0.2285943147 -0.2809305946 -2.671000004 8.850780467e-39
0.008323227203 -0.3251358294 -2.667000055 8.758584837e-39
0.01735408449 -0.291171473 -2.683000088 1.14322581e-38
0.008176548132 -0.3676294614 -2.619999886 8.758584837e-39
-0.2330646925 -0.2809305946 -2.671000004 8.942976097e-39
0.09096251578 -0.6983131405 -2.881000042 9.311758616e-39
-0.2392021846 -0.331685275 -2.546000004 7.744432909e-39
-0.2077150089 -0.3033680347 -2.632999897 8.942976097e-39
-0.2368651709 -0.5050618155 -2.476999998 5.070759642e-39
-0.1409063994 -0.252729936 -2.703999996 9.035171727e-39
-0.1073285906 -0.310579139 -2.657000065 8.942976097e-39
-0.256448163 -0.3234188894 -2.548000097 8.297606688e-39
0.1321567339 -0.3488765378 -2.644000053 8.850780467e-39
-0.0006132002028 -0.2801874814 -2.707000017 7.00686787e-39
0.0410608567 -0.4238726876 -2.486999989 8.481997947e-39
0.07525024506 -0.3250138985 -2.665999889 8.113215428e-39
0.1407937903 -0.3748532402 -2.640000105 8.942976097e-39
0.01273417027 -0.3326831687 -2.655999899 8.758584837e-39
-0.005143830247 -0.2801874814 -2.707000017 6.269302831e-39
-0.03837682458 -0.3815938924 -2.50999999 8.574193577e-39
-0.06705275611 -0.3315558757 -2.647000074 8.574193577e-39
0.1172175534 -0.4137895604 -2.607000113 8.850780467e-39
-0.06674877474 -0.3565070762 -2.63499999 8.113215428e-39
-0.1617200847 -0.2901947449 -2.674000025 8.758584837e-39
-0.01416310931 -0.2883917057 -2.698999882 4.886368383e-39
-0.0141053868 -0.3007095476 -2.687999964 6.63808535e-39
0.1116854806 -0.4354061432 -2.579999924 8.666389207e-39
-0.05024512614 -0.2790489372 -2.696000099 7.099063499e-39
-0.04266255937 -0.3781457989 -2.515000105 8.389802318e-39
-0.2049297663 -0.292465097 -2.654000044 8.758584837e-39
-0.05920361248 -0.2787384206 -2.693000078 8.850780467e-39
0.03518430424 -0.3079767634 -2.673000097 8.850780467e-39
0.1222803545 -0.3942338908 -2.621999979 8.850780467e-39
-0.04105249889 -0.2913885064 -2.684999943 6.361498461e-39
-0.09497820852 -0.2779103683 -2.684999943 8.850780467e-39
0.03522379307 -0.2993671115 -2.676000118 6.63808535e-39
-0.03073929261 -0.619593719 -2.573999882 4.886368383e-39
-0.1040045542 -0.2780138902 -2.686000109 8.850780467e-39
0.08218515042 -0.4044436306 -2.602999926 8.942976097e-39
0.04328973297 -0.3722974049 -2.621999979 8.850780467e-39
-0.108540429 -0.2781173875 -2.687000036 8.666389207e-39
-0.04488474094 -0.3358580531 -2.645999908 8.389802318e-39
0.0128444436 -0.3041853736 -2.678999901 8.758584837e-39
-0.2208871144 -0.2645307314 -2.686000109 8.850780467e-39
-0.05341684747 -0.3514299255 -2.630000114 8.389802318e-39
0.1585878096 -0.3574541497 -2.64199996 8.389802318e-39
-0.1757665795 -0.3197816842 -2.552999973 9.311758616e-39
0.008270173387 -0.3407999475 -2.650000095 8.758584837e-39
-0.1125748375 -0.2993671115 -2.676000118 8.850780467e-39
0.09701138245 -0.3320568981 -2.651000023 8.666389207e-39
-0.04016570604 -0.351029052 -2.627000093 8.666389207e-39
0.03500002198 -0.333058943 -2.65899992 8.850780467e-39
-0.1678625416 -0.3206251409 -2.630000114 8.666389207e-39
-0.1402810708 -0.2786348987 -2.691999912 8.942976097e-39
-0.1756702724 -0.2731121588 -2.681999922 8.942976097e-39
-0.1713091424 -0.2733158314 -2.684000015 8.758584837e-39
-0.1684951182 -0.248847972 -2.710999966 8.942976097e-39
0.05574430674 -0.415264615 -2.588999987 8.758584837e-39
-0.165500966 -0.3291307407 -2.592999935 9.772736766e-39
-0.1748842858 -0.2942282661 -2.670000076 8.850780467e-39
-0.1666968194 -0.3400719195 -2.545000076 8.389802318e-39
-0.1977448815 -0.2770823406 -2.677000046 8.666389207e-39
-0.2163916313 -0.2645307314 -2.686000109 8.850780467e-39
-0.2156665613 -0.2770823406 -2.677000046 9.127367356e-39
-0.1407500673 -0.2614885084 -2.700999975 8.758584837e-39
-0.2609173056 -0.3108722656 -2.549999952 8.574193577e-39
0.07505266462 -0.333058943 -2.65899992 8.942976097e-39
-0.1967845955 -0.2891095001 -2.664000034 8.666389207e-39
-0.07210408732 -0.3031634941 -2.670000076 8.758584837e-39
-0.1641997053 -0.2401293139 -2.714999914 8.942976097e-39
-0.05944543754 -0.252729936 -2.703999996 5.808324681e-39
-0.1398641933 -0.2867889501 -2.684000015 8.758584837e-39
-0.2306798469 -0.3231650166 -2.546000004 8.297606688e-39
0.1071177137 -0.4473145047 -2.573999882 8.942976097e-39
0.06722185483 -0.6639683871 -2.701999903 1.14322581e-38
-0.1691166415 -0.2315540897 -2.720999956 8.666389207e-39
-0.04070083871 -0.3200720343 -2.661999941 8.205411058e-39
0.1215808164 -0.4137895604 -2.607000113 8.942976097e-39
-0.1991280796 -0.3037136901 -2.635999918 8.758584837e-39
-0.1178175305 -0.560397419 -2.502000093 7.00686787e-39
-0.1482384343 -0.2990314958 -2.673000097 8.850780467e-39
-0.2088805806 -0.343653876 -2.539999962 7.744432909e-39
-0.005143830247 -0.2756579568 -2.707000017 6.73028098e-39
-0.2081728188 -0.2519822239 -2.696000099 8.850780467e-39
-0.09051810494 -0.2780138902 -2.686000109 8.758584837e-39
-0.1089039834 -0.2519822239 -2.696000099 8.205411058e-39
-0.1711578363 -0.3319458412 -2.548000097 8.389802318e-39
-0.08522196152 -0.3110466966 -2.661000013 8.850780467e-39
-0.04588557257 -0.2618757503 -2.704999924 7.191259129e-39
-0.2081883469 -0.2952278602 -2.638999939 8.758584837e-39
-0.05494013766 -0.2528233944 -2.704999924 7.560041649e-39
0.08382696053 -0.3325579206 -2.654999971 8.850780467e-39
-0.03930949011 -0.623173595 -2.571000099 5.347346532e-39
0.1363236302 -0.3658797416 -2.638999939 8.942976097e-39
0.1058452526 -0.3274975012 -2.650000095 8.850780467e-39
-0.1888545573 -0.2727048379 -2.677999973 8.850780467e-39
-0.0006066309997 -0.3085528373 -2.677999973 8.942976097e-39
-0.2496041699 -0.497374134 -2.480000019 6.361498461e-39
-0.1637763561 -0.253103792 -2.707999945 9.035171727e-39
0.1452122845 -0.3881054886 -2.640000105 8.850780467e-39
-0.2574546305 -0.2861663167 -2.558000088 8.758584837e-39
0.08670012821 -0.6104536928 -2.746000051 8.758584837e-39
0.03040036888 -0.3491404192 -2.645999908 8.850780467e-39
-0.05902773543 -0.2868957937 -2.684999943 8.574193577e-39
0.0605879526 -0.379473311 -2.611000061 8.850780467e-39
-0.1109341715 -0.3567776825 -2.637000084 6.82247661e-39
-0.03655868975 -0.2464613792 -2.684999943 1.134006247e-38
-0.009688755578 -0.2669928425 -2.710999966 7.099063499e-39
-0.01808512577 -0.375391725 -2.612999916 8.574193577e-39
-0.07711768629 -0.2783243821 -2.688999891 8.850780467e-39
-0.3578394452 -0.8628221639 -2.223999977 4.886368383e-39
-0.16702431 -0.3279395542 -2.549999952 8.205411058e-39
0.08204442297 -0.6880634591 -2.743999958 8.113215428e-39
0.09646246472 -0.3522316405 -2.635999918 8.942976097e-39
-0.1080960912 -0.2993671115 -2.676000118 8.850780467e-39
-0.1069246445 -0.3182684889 -2.647000074 8.758584837e-39
0.02177126949 -0.3080919727 -2.674000025 8.942976097e-39
-0.1065610901 -0.3436707611 -2.638000011 8.666389207e-39
-0.1874017289 -0.2225299357 -2.721999884 8.666389207e-39
-0.1669413174 -0.273519504 -2.686000109 8.758584837e-39
-0.03206488061 -0.2464613792 -2.684999943 1.152445373e-38
-0.04529186163 -0.3076311081 -2.670000076 7.744432909e-39
0.1315569261 -0.3913334213 -2.631999969 8.758584837e-39
-0.09018110563 -0.2904118042 -2.676000118 8.850780467e-39
0.03050377223 -0.3370004354 -2.654999971 8.850780467e-39
-0.1816368803 -0.252729936 -2.703999996 8.758584837e-39
-0.1880083024 -0.2893265335 -2.665999889 8.850780467e-39
-0.08049514491 -0.3233071562 -2.65199995 8.942976097e-39
-0.04949964579 -0.3282389807 -2.655999899 8.297606688e-39
-0.1891366367 -0.2686244659 -2.681999922 8.850780467e-39
-0.01420509033 -0.2756579568 -2.707000017 5.439542162e-39
-0.1618628856 -0.3558428854 -2.536000013 8.297606688e-39
-0.1174472542 -0.2868957937 -2.684999943 8.850780467e-39
0.008160944418 -0.3756790646 -2.61500001 8.942976097e-39
-0.1704861029 -0.3518767885 -2.538000107 8.205411058e-39
-0.1612362468 -0.3027092954 -2.665999889 8.850780467e-39
-0.176598872 -0.32050321 -2.628999949 8.574193577e-39
-0.1784212647 -0.218135478 -2.723999977 1.023371491e-38
-0.1108920962 -0.3522316405 -2.635999918 8.205411058e-39
-0.1226677155 -0.2479300534 -2.700999975 8.481997947e-39
-0.1036560629 -0.2949996477 -2.677000046 8.758584837e-39
-0.02290536483 -0.3248919966 -2.664999962 8.574193577e-39
-0.2267743981 -0.3108722656 -2.549999952 8.389802318e-39
-0.211107258 -0.2725011896 -2.676000118 8.850780467e-39
-0.03409421199 -0.3890614135 -2.503999949 8.574193577e-39
0.1273450589 -0.3742852543 -2.635999918 8.942976097e-39
-0.1553629206 -0.3132465256 -2.64199996 8.850780467e-39
-0.1239862247 -0.3342079553 -2.632999897 8.758584837e-39
-0.03408059708 -0.414035122 -2.503000021 7.375650389e-39
-0.1130375856 -0.2781173875 -2.687000036 8.850780467e-39
-0.2925198476 -0.4831017074 -2.492000103 5.070759642e-39
-0.2617358835 -0.2904465252 -2.558000088 9.035171727e-39
-0.08010056051 -0.3614639991 -2.638999939 6.82247661e-39
-0.1707347039 -0.2858272815 -2.674999952 8.850780467e-39
-0.1885113702 -0.3153862672 -2.552000046 8.758584837e-39
-0.113542399 -0.2432303226 -2.698999882 1.152445373e-38
0.03027398885 -0.3609161258 -2.63499999 8.758584837e-39
-0.02277644272 -0.3407999475 -2.650000095 8.666389207e-39
-0.1640182679 -0.2489397573 -2.711999893 8.942976097e-39
-0.1263877865 -0.2912799897 -2.684000015 8.942976097e-39
-0.0500960283 -0.2872163499 -2.687999964 7.375650389e-39
-0.2263297534 -0.3230380953 -2.545000076 8.389802318e-39
0.003852308068 -0.3289804896 -2.661999941 8.850780467e-39
-0.1774387775 -0.2486644014 -2.709000111 8.942976097e-39
-0.186369032 -0.2484808089 -2.707000017 8.942976097e-39
0.1047668218 -0.3812173251 -2.622999907 8.850780467e-39
-0.1903354865 -0.2522625992 -2.698999882 8.850780467e-39
-0.2170754773 -0.3023967557 -2.586999893 9.403954246e-39
0.04511417489 -0.4436069032 -2.480999947 8.021019798e-39
-0.07640071671 -0.3069397974 -2.664000034 8.850780467e-39
-0.1622458446 -0.3439244823 -2.542000055 8.389802318e-39
-0.23929613 -0.3190301356 -2.546999931 8.113215428e-39
-0.1947805378 -0.2521691408 -2.697999954 8.942976097e-39
0.09079352394 -0.4170289552 -2.599999905 8.666389207e-39
0.04264583477 -0.4013361143 -2.582999945 8.850780467e-39
0.03701712519 -0.4085369827 -2.494999886 8.666389207e-39
-0.03664038572 -0.2875369061 -2.690999985 5.439542162e-39
0.1276349207 -0.3574541497 -2.64199996 8.758584837e-39
-0.02692415284 -0.3591355134 -2.621999979 8.850780467e-39
0.1224668973 -0.3904413176 -2.625999928 8.758584837e-39
-0.1992961047 -0.2521691408 -2.697999954 8.942976097e-39
-0.01310835394 -0.4048484006 -2.497999907 8.666389207e-39
-0.1273766584 -0.2437710385 -2.704999924 9.035171727e-39
-0.1585751887 -0.324037136 -2.621999979 8.850780467e-39
0.07070858487 -0.3291040941 -2.663000107 8.758584837e-39
-0.124275986 -0.9971616893 -2.463999987 4.978564013e-39
0.1019709122 -0.4393932594 -2.552999973 8.389802318e-39
0.05611033647 -0.3831071373 -2.605999947 8.942976097e-39
-0.0006147858632 -0.2582058247 -2.713999987 1.134006247e-38
-0.09828651026 -0.31455075 -2.653000116 8.850780467e-39
-0.2453544974 -0.4971735944 -2.479000092 7.375650389e-39
-0.1833738202 -0.343653876 -2.539999962 8.297606688e-39
-0.0277764424 -0.2709281063 -2.704999924 4.978564013e-39
-0.1168786078 -0.3033905664 -2.671999931 8.758584837e-39
-0.06340325784 -0.2953302436 -2.680000067 8.666389207e-39
0.03701712519 -0.4127117752 -2.494999886 8.481997947e-39
-0.08125396328 -0.2949996477 -2.677000046 8.850780467e-39
-0.132050231 -0.2349790009 -2.707999945 8.113215428e-39
-0.2531733775 -0.2947267337 -2.558000088 8.942976097e-39
-0.1366114262 -0.3564041446 -2.539999962 8.574193577e-39
0.05268205515 -0.6341708874 -2.653000116 6.91467224e-39
-0.2086360962 -0.2480218387 -2.701999903 9.035171727e-39
0.1265720979 -0.3983171149 -2.619999886 8.850780467e-39
-0.1271412175 -0.2523560799 -2.700000048 8.574193577e-39
0.01610572834 -0.4327168501 -2.49000001 7.652237279e-39
-0.04544452785 -0.2997027005 -2.678999901 7.099063499e-39
-0.21131616 -0.3066048298 -2.622999907 8.481997947e-39
0.1119885019 -0.4236012741 -2.586999893 8.758584837e-39
-0.08611869377 -0.2693255707 -2.688999891 9.035171727e-39
-0.04076199621 -0.3160920572 -2.665999889 8.021019798e-39
-0.009338516353 -0.375391725 -2.612999916 8.758584837e-39
-0.1328465479 -0.9954568986 -2.470000029 4.701977123e-39
-0.04593646266 -0.2395101987 -2.707999945 6.73028098e-39
-0.177766268 -0.2445821123 -2.713999987 8.942976097e-39
-0.1790521778 -0.3562638382 -2.539000034 8.205411058e-39
-0.0274478504 -0.3079767634 -2.673000097 7.744432909e-39
-0.1716282648 -0.2693255707 -2.688999891 8.942976097e-39
-0.1270470344 -0.2566836059 -2.697999954 9.035171727e-39
-0.1576184535 -0.3558428854 -2.536000013 8.205411058e-39
0.01260951451 -0.3602312925 -2.630000114 9.035171727e-39
-0.169585842 -0.310579139 -2.657000065 8.574193577e-39
0.03514481541 -0.3165663361 -2.670000076 8.942976097e-39
-0.01863190148 -0.2966526007 -2.691999912 5.623933422e-39
0.00381034071 -0.35623647 -2.632999897 8.942976097e-39
0.1096978622 -0.361053086 -2.635999918 8.850780467e-39
-0.03143194287 -0.3472931234 -2.631999969 8.666389207e-39
-0.1813523853 -0.5374177845 -2.512000084 5.439542162e-39
-0.01813357404 -0.363245511 -2.619999886 8.758584837e-39
0.04938570102 -0.4238726876 -2.486999989 8.389802318e-39
0.08537808146 -0.420490201 -2.568000078 8.942976097e-39
-0.2326731595 -0.3001758501 -2.568000078 8.666389207e-39
0.08404797227 -0.3200720343 -2.661999941 1.023371491e-38
-0.2118961483 -0.2645307314 -2.686000109 8.942976097e-39
-0.04025744046 -0.3474250641 -2.632999897 8.666389207e-39
-0.03837682458 -0.3773940008 -2.50999999 8.389802318e-39
0.01745110609 -0.2882848621 -2.697999954 1.060249743e-38
-0.09913859839 -0.2904118042 -2.676000118 8.850780467e-39
-0.198852893 -0.2606171966 -2.691999912 8.758584837e-39
0.01228828283 -0.3939400233 -2.562999964 8.758584837e-39
-0.01859729628 -0.3005976845 -2.687000036 6.54588972e-39
-0.05429020238 -0.3035041296 -2.673000097 8.297606688e-39
0.1057254269 -0.3359850046 -2.647000074 8.113215428e-39
-0.1716952166 -0.3244343203 -2.555999994 8.666389207e-39
-0.1577739349 -0.2821927401 -2.683000088 8.758584837e-39
-0.03657230791 -0.291497049 -2.686000109 6.084911571e-39
0.02612888146 -0.3289804896 -2.661999941 8.850780467e-39
-0.03631360509 -0.3162106411 -2.667000055 8.113215428e-39
