# .PCD v0.7 - Point Cloud Data file format
VERSION 0.7
FIELDS x y z
SIZE 4 4 4
TYPE F F F
COUNT 1 1 1
WIDTH 1159
HEIGHT 1
VIEWPOINT 0 0 0 1 0 0 0
POINTS 1159
DATA ascii
-0.1367991418 -0.1857153773 -1.986999989
-0.1436668932 -0.1859957725 -1.99000001
-0.09408450127 -0.2536071241 -1.998000026
0.03377985954 -0.1878063232 -2.046000004
0.030355528 -0.1878063232 -2.046000004
0.01983714104 -0.1855115145 -2.020999908
0.01304628607 -0.1851443648 -2.01699996
0.009651312605 -0.1847772002 -2.013000011
-0.003806092311 -0.1838592738 -2.003000021
-0.01050032675 -0.1836756915 -2.000999928
-0.01383550186 -0.1834921092 -1.998999953
-0.01717257872 -0.183400318 -1.998000026
-0.02051657438 -0.183400318 -1.998000026
-0.02386057191 -0.183400318 -1.998000026
-0.03387559578 -0.1833085269 -1.996999979
-0.03721791878 -0.1833085269 -1.996999979
-0.04053993523 -0.1832167357 -1.996000051
-0.04722123221 -0.1832167357 -1.996000051
-0.05053655058 -0.1831249446 -1.995000005
-0.05387552455 -0.1831249446 -1.995000005
-0.06049277261 -0.1829413623 -1.993000031
-0.07697730511 -0.1824823916 -1.988000035
-0.0803045705 -0.1824823916 -1.988000035
-0.083589755 -0.1823906004 -1.986999989
-0.08682785928 -0.1822070181 -1.985000014
-0.09342524409 -0.182115227 -1.983999968
-0.1032306105 -0.1818398535 -1.980999947
-0.1098062471 -0.1817480624 -1.980000019
-0.1231238768 -0.1818398535 -1.980999947
-0.1401247233 -0.1823906004 -1.986999989
-0.1486226022 -0.315983057 -2.012000084
0.03733148053 -0.239977017 -2.052999973
-0.03413004801 -0.3563823402 -2.012000084
-0.1418249756 -0.4131413996 -2.059999943
-0.01382165961 -0.1933330446 -1.996999979
0.02668110095 -0.1826705784 -2.02699995
0.02326559089 -0.1824903488 -2.025000095
0.01984695718 -0.182219997 -2.022000074
0.01646279357 -0.182219997 -2.022000074
0.00627284823 -0.1811385602 -2.00999999
-0.003807992442 -0.1805978417 -2.003999949
-0.007154883817 -0.1804176122 -2.002000093
-0.01050557476 -0.1804176122 -2.002000093
-0.0138493441 -0.18032749 -2.000999928
-0.01718976721 -0.1802373677 -2
-0.02052684315 -0.1801472455 -1.998999953
-0.02387251332 -0.1801472455 -1.998999953
-0.0272181835 -0.1801472455 -1.998999953
-0.03054856509 -0.1800571382 -1.998000026
-0.0405805558 -0.1800571382 -1.998000026
-0.04390256479 -0.179967016 -1.996999979
-0.05390252918 -0.1798769087 -1.996000051
-0.06052312255 -0.1796966493 -1.993999958
-0.06382840127 -0.179606542 -1.993000031
-0.0671640262 -0.179606542 -1.993000031
-0.08034496009 -0.179246068 -1.988999963
-0.083589755 -0.1790658236 -1.986999989
-0.08687160164 -0.1789757013 -1.985999942
-0.0966970548 -0.1787053645 -1.98300004
-0.1064923778 -0.1784349978 -1.980000019
-0.1131201163 -0.1784349978 -1.980000019
-0.1164339855 -0.1784349978 -1.980000019
-0.126503244 -0.1786152422 -1.981999993
-0.1333392113 -0.178885594 -1.985000014
-0.1366614401 -0.178885594 -1.985000014
-0.1400541961 -0.1789757013 -1.985999942
-0.1436668932 -0.1793361902 -1.99000001
-0.083589755 -0.1890401542 -1.986999989
0.02672058903 -0.1795442104 -2.029999971
0.02326559089 -0.1791019887 -2.025000095
0.01985677332 -0.1789250821 -2.023000002
0.009660901502 -0.1782175303 -2.015000105
0.006279089954 -0.1779522002 -2.012000084
-0.01719836146 -0.1769792885 -2.000999928
-0.02723179944 -0.1768908501 -2
-0.04062117636 -0.1768908501 -2
-0.0439465344 -0.1768023968 -1.998999953
-0.04726854712 -0.1767139584 -1.998000026
-0.05061254278 -0.1767139584 -1.998000026
-0.05395654216 -0.1767139584 -1.998000026
-0.05727185681 -0.1766255051 -1.996999979
-0.06386042386 -0.176360175 -1.993999958
-0.06719772518 -0.176360175 -1.993999958
-0.08363182843 -0.1758295 -1.988000035
-0.09010468423 -0.1754757166 -1.983999968
-0.09342524409 -0.1754757166 -1.983999968
-0.09664829075 -0.1752988249 -1.981999993
-0.1031263918 -0.1750334948 -1.978999972
-0.1064385846 -0.1750334948 -1.978999972
-0.1097507849 -0.1750334948 -1.978999972
-0.09384905547 -0.3129991293 -1.993000031
-0.123061724 -0.1751219332 -1.980000019
-0.1264394224 -0.1752103716 -1.980999947
-0.133272022 -0.1754757166 -1.983999968
-0.1365925968 -0.1754757166 -1.983999968
-0.1399836838 -0.1755641699 -1.985000014
-0.1441722512 -0.1766255051 -1.996999979
-0.07379823178 -0.2295135409 -1.991999984
0.02672058903 -0.1761474758 -2.029999971
0.02326559089 -0.1757136285 -2.025000095
0.01985677332 -0.1755400747 -2.023000002
0.01647093333 -0.1755400747 -2.023000002
0.01305922307 -0.1751929969 -2.019000053
-0.09042259306 -0.3026906252 -1.991000056
0.009660901502 -0.1748459041 -2.015000105
0.006279089954 -0.1745855957 -2.012000084
-0.003811792936 -0.1740649492 -2.006000042
-0.007162030786 -0.1738913953 -2.003999949
-0.01387010794 -0.1738913953 -2.003999949
-0.01721555181 -0.1738046408 -2.003000021
-0.0205679182 -0.1738046408 -2.003000021
-0.02392028272 -0.1738046408 -2.003000021
-0.02727264725 -0.1738046408 -2.003000021
-0.03396041691 -0.1737178713 -2.002000093
-0.03731110692 -0.1737178713 -2.002000093
-0.04401249066 -0.1737178713 -2.002000093
-0.05730053782 -0.1733707786 -1.998000026
-0.06061417982 -0.1732839942 -1.996999979
-0.0639244765 -0.1731972396 -1.996000051
-0.06726513058 -0.1731972396 -1.996000051
-0.07053502649 -0.1730236858 -1.993999958
-0.07709347457 -0.1727633774 -1.991000056
-0.08042575419 -0.1727633774 -1.991000056
-0.08367389441 -0.1725898236 -1.988999963
-0.08687160164 -0.1723295003 -1.985999942
-0.09342524409 -0.1721559614 -1.983999968
-0.09991506487 -0.1718956381 -1.980999947
-0.1031263918 -0.1717220992 -1.978999972
-0.1064385846 -0.1717220992 -1.978999972
-0.1130629778 -0.1717220992 -1.978999972
-0.1163751781 -0.1717220992 -1.978999972
-0.1197478548 -0.1718088686 -1.980000019
-0.1264394224 -0.1718956381 -1.980999947
-0.1365925968 -0.1721559614 -1.983999968
-0.1399836838 -0.1722427309 -1.985000014
-0.02054737881 -0.1769792885 -2.000999928
-0.1276521236 -0.3140984476 -2
-0.1072991341 -0.2866079211 -1.995000005
0.02710231207 -0.1752186269 -2.059000015
0.02327707782 -0.1724103689 -2.026000023
0.01985677332 -0.1721550673 -2.023000002
0.01647093333 -0.1721550673 -2.023000002
0.009670490399 -0.1716444641 -2.01699996
0.006282210816 -0.1713040769 -2.013000011
0.002913109027 -0.1713040769 -2.013000011
-0.000455313042 -0.1710487753 -2.00999999
-0.007165605202 -0.1706232876 -2.005000114
-0.02392028272 -0.1704530865 -2.003000021
-0.02727264725 -0.1704530865 -2.003000021
-0.03062501177 -0.1704530865 -2.003000021
-0.04066179693 -0.1703680009 -2.002000093
-0.04401249066 -0.1703680009 -2.002000093
-0.05401055142 -0.1701977849 -2
-0.05730053782 -0.1700275987 -1.998000026
-0.06061417982 -0.1699424982 -1.996999979
-0.0639244765 -0.1698573977 -1.996000051
-0.07709347457 -0.1694319099 -1.991000056
-0.08042575419 -0.1694319099 -1.991000056
-0.08687160164 -0.1690064073 -1.985999942
-0.09010468423 -0.1688362062 -1.983999968
-0.09342524409 -0.1688362062 -1.983999968
-0.09659951925 -0.1685809046 -1.980999947
-0.09981419146 -0.1684107035 -1.978999972
-0.1063848063 -0.1683256179 -1.978000045
-0.1096398681 -0.1682405174 -1.976999998
-0.1129487231 -0.1682405174 -1.976999998
-0.119626902 -0.1683256179 -1.978000045
-0.122937426 -0.1683256179 -1.978000045
-0.07376118749 -0.2194039226 -1.991000056
-0.1198083311 -0.1950987875 -1.980999947
-0.03172586113 -0.3918455839 -2.075000048
0.02328856662 -0.1691037565 -2.02699995
0.01647907495 -0.1688534766 -2.023999929
0.009675283916 -0.1683529168 -2.017999887
0.00628845254 -0.1681026518 -2.015000105
-0.0004557661014 -0.1678523719 -2.012000084
-0.003817493562 -0.167602092 -2.009000063
-0.01388395112 -0.167351827 -2.006000042
-0.01723274216 -0.1672683954 -2.005000114
-0.03065559268 -0.1672683954 -2.005000114
-0.03736701608 -0.1672683954 -2.005000114
-0.04741049185 -0.1671849638 -2.003999949
-0.0573865734 -0.1669346839 -2.000999928
-0.06067488343 -0.1667678356 -1.998999953
-0.06395650655 -0.1666009873 -1.996999979
-0.06729882956 -0.1666009873 -1.996999979
-0.0706057772 -0.1665175706 -1.996000051
-0.08046614379 -0.1661838591 -1.991999984
-0.08367389441 -0.1659335792 -1.988999963
-0.08687160164 -0.1656832993 -1.985999942
-0.09337816387 -0.1654330343 -1.98300004
-0.1029700562 -0.1648490429 -1.975999951
-0.1062772349 -0.1648490429 -1.975999951
-0.1161399633 -0.1647656262 -1.975000024
-0.1194454655 -0.1647656262 -1.975000024
-0.1295584738 -0.1650159061 -1.978000045
-0.1396310776 -0.1651827544 -1.980000019
-0.06046241894 -0.246179238 -1.991999984
-0.09083133191 -0.344217211 -2
-0.1073529199 -0.3301694393 -1.996000051
0.01647907495 -0.1654667854 -2.023999929
0.01307862811 -0.1653032899 -2.022000074
0.006294693798 -0.1648945212 -2.01699996
0.002918897662 -0.1648945212 -2.01699996
-0.003821293823 -0.1644040048 -2.010999918
-0.01725852489 -0.1641587466 -2.007999897
-0.02061925828 -0.1641587466 -2.007999897
-0.02397999167 -0.1641587466 -2.007999897
-0.02734072506 -0.1641587466 -2.007999897
-0.04080397263 -0.1642405093 -2.009000063
-0.04414439201 -0.1641587466 -2.007999897
-0.04748146608 -0.1640769988 -2.006999969
-0.05081519857 -0.1639952511 -2.006000042
-0.04056024179 -0.2868952453 -1.996999979
-0.05417258292 -0.1639952511 -2.006000042
-0.05747260898 -0.1638317406 -2.003999949
-0.06405258179 -0.1635047346 -2
-0.06739992648 -0.1635047346 -2
-0.07390937954 -0.1630959809 -1.995000005
-0.08050654083 -0.1629324704 -1.993000031
-0.08687160164 -0.1623601913 -1.985999942
-0.09001385421 -0.1620331854 -1.981999993
-0.09961245209 -0.1614609212 -1.975000024
-0.1061158851 -0.1612974256 -1.97300005
-0.1093625799 -0.161215663 -1.972000003
-0.115963541 -0.161215663 -1.972000003
-0.1225645095 -0.161215663 -1.972000003
-0.1259926409 -0.1613791734 -1.973999977
-0.1293619722 -0.1614609212 -1.975000024
-0.1328018159 -0.1616244316 -1.976999998
-0.1361106634 -0.1616244316 -1.976999998
0.006275968626 -0.2384325266 -2.010999918
-0.01727571711 -0.3257587254 -2.00999999
-0.1401247233 -0.19901447 -1.986999989
0.02373664454 -0.1654434353 -2.065999985
0.002918897662 -0.1615195572 -2.01699996
-0.0004562191316 -0.1612793058 -2.013999939
-0.007179900538 -0.1608789265 -2.009000063
-0.01054230798 -0.1608789265 -2.009000063
-0.01389779244 -0.1607988328 -2.007999897
-0.02061925828 -0.1607988328 -2.007999897
-0.02734072506 -0.1607988328 -2.007999897
-0.03070145845 -0.1607988328 -2.007999897
-0.03744156286 -0.1608789265 -2.009000063
-0.04414439201 -0.1607988328 -2.007999897
-0.04748146608 -0.1607187539 -2.006999969
-0.05081519857 -0.16063869 -2.006000042
-0.05747260898 -0.1604785174 -2.003999949
-0.06076594815 -0.1603183746 -2.002000093
-0.07071189582 -0.1600781232 -1.998999953
-0.07398346812 -0.1599179655 -1.996999979
-0.07720962912 -0.159677729 -1.993999958
-0.08054693043 -0.159677729 -1.993999958
-0.08687160164 -0.1590370983 -1.985999942
-0.09001385421 -0.1587167829 -1.981999993
-0.09333106875 -0.1587167829 -1.981999993
-0.0965019986 -0.1584765464 -1.978999972
-0.09961245209 -0.158156231 -1.975000024
-0.1061158851 -0.1579960734 -1.97300005
-0.1093625799 -0.1579159945 -1.972000003
-0.05035922676 -0.3022345304 -1.988000035
0.009684873745 -0.1583797932 -2.019999981
0.00629781466 -0.1582229733 -2.017999887
0.002920344705 -0.1582229733 -2.017999887
-0.007190622389 -0.1577525586 -2.012000084
-0.03076262027 -0.1577525586 -2.012000084
-0.03751610965 -0.1578309536 -2.013000011
-0.04088521376 -0.1578309536 -2.013000011
-0.04425431415 -0.1578309536 -2.013000011
-0.05425360054 -0.1575173438 -2.009000063
-0.05755864829 -0.1573605239 -2.006999969
-0.06082664803 -0.1571252942 -2.003999949
-0.06411663443 -0.1569685042 -2.002000093
-0.07071189582 -0.1567332745 -1.998999953
-0.07398346812 -0.1565764546 -1.996999979
-0.07720962912 -0.1563412398 -1.993999958
-0.08054693043 -0.1563412398 -1.993999958
-0.08371596038 -0.15602763 -1.99000001
-0.0964044705 -0.1550083458 -1.976999998
-0.09951157868 -0.1546947211 -1.97300005
-0.1027095094 -0.1545379013 -1.970999956
-0.1124916673 -0.1543810964 -1.968999982
-0.119082585 -0.1543810964 -1.968999982
-0.1223780513 -0.1543810964 -1.968999982
-0.1258011609 -0.1545379013 -1.970999956
-0.1291654706 -0.1546163112 -1.972000003
-0.1326002926 -0.154773131 -1.973999977
-0.1393489987 -0.1549299359 -1.975999951
-0.04037744924 -0.2190733254 -1.988000035
0.006300935987 -0.1549230814 -2.019000053
0.00292179198 -0.1549230814 -2.019000053
-0.000456898706 -0.1547695994 -2.01699996
-0.003828894813 -0.1546161473 -2.015000105
-0.007197769824 -0.1545394063 -2.013999939
-0.0105685452 -0.1545394063 -2.013999939
-0.01393932011 -0.1545394063 -2.013999939
-0.01730150171 -0.1544626802 -2.013000011
-0.0206706021 -0.1544626802 -2.013000011
-0.02405164577 -0.1545394063 -2.013999939
-0.03419790044 -0.1546928734 -2.016000032
-0.03759065643 -0.1547695994 -2.01699996
-0.04096645489 -0.1547695994 -2.01699996
-0.04434224963 -0.1547695994 -2.01699996
-0.04769438878 -0.1546928734 -2.016000032
-0.0609177053 -0.154002279 -2.006999969
-0.06418068707 -0.1537720859 -2.003999949
-0.07078263909 -0.1535418779 -2.000999928
-0.07720962912 -0.1530047506 -1.993999958
-0.08054693043 -0.1530047506 -1.993999958
-0.08992302418 -0.151930511 -1.980000019
-0.1025531814 -0.1510097086 -1.968000054
-0.1058469713 -0.1510097086 -1.968000054
-0.1090852916 -0.1509329826 -1.967000008
-0.1123202741 -0.1508562416 -1.965999961
-0.1156107113 -0.1508562416 -1.965999961
-0.1189011484 -0.1508562416 -1.965999961
-0.1255458593 -0.1509329826 -1.967000008
-0.128968969 -0.1510864496 -1.968999982
-0.139137432 -0.1513933837 -1.97300005
-0.03749747574 -0.3530157506 -2.012000084
-0.03051798604 -0.3201499283 -1.996000051
-0.08700282872 -0.2191835195 -1.988999963
-0.1153754964 -0.1439834237 -1.962000012
-0.04710294306 -0.216072455 -1.991000056
-0.06878162175 -0.08147830516 -2.040999889
-0.06243533641 -0.06146561727 -2.056999922
-0.0997133255 -0.1649324745 -1.976999998
-0.04045869038 -0.2028484046 -1.991999984
-0.03384166956 -0.2599026263 -1.995000005
-0.05773072317 -0.1477261186 -2.013000011
-0.02383668721 -0.1898964047 -1.996000051
-0.04388058186 -0.266712606 -1.996000051
-0.09555456787 -0.4219658077 -2.104000092
0.02694435604 -0.239275679 -2.046999931
-0.05406456441 -0.1670181155 -2.002000093
-0.1081289873 -0.4022616446 -2.075000048
-0.0337398909 -0.2125272751 -1.988999963
0.009761585854 -0.2993116379 -2.036000013
-0.1352844983 -0.1343397051 -1.965000033
-0.0004573517654 -0.148166433 -2.019000053
-0.1185382828 -0.1339978725 -1.960000038
0.03734966367 -0.2538414299 -2.053999901
-0.01712100767 -0.2395129651 -1.991999984
-0.02738157287 -0.1576741338 -2.010999918
-0.1265670806 -0.1919776797 -1.98300004
-0.06076594815 -0.1636682451 -2.002000093
-0.007151309401 -0.1836756915 -2.000999928
-0.08974135667 -0.1086407751 -1.975999951
-0.135628745 -0.1478668451 -1.970000029
-0.1023968458 -0.1409156322 -1.965000033
-0.05546883121 -0.07168662548 -2.053999901
-0.007215639576 -0.3035691381 -2.019000053
-0.1209574267 -0.354256779 -2
-0.083589755 -0.2788090706 -1.986999989
0.006266606506 -0.1876781434 -2.007999897
-0.1023447365 -0.1375576258 -1.963999987
-0.083589755 -0.19901447 -1.986999989
-0.05035922676 -0.3055609763 -1.988000035
-0.08762831241 -0.4072979093 -2.082999945
-0.08735276014 -0.3303348422 -1.996999979
-0.1488442123 -0.3097109497 -2.015000105
-0.09185818583 -0.05923665315 -2.099999905
-0.162575677 -0.3473151326 -2.017999887
-0.0829302147 -0.3911262751 -2.052999973
-0.1263117641 -0.1684107035 -1.978999972
-0.1174336672 -0.3102858067 -1.996999979
-0.0999655053 -0.2051465064 -1.981999993
-0.0803045705 -0.2856023014 -1.988000035
-0.04710294306 -0.2460556626 -1.991000056
-0.07163161784 -0.3722384572 -2.025000095
-0.03725519404 -0.2738031447 -1.998999953
-0.06901752949 -0.06805037707 -2.048000097
-0.01717257872 -0.1867434978 -1.998000026
-0.08515192568 -0.06651680171 -2.10800004
-0.03379078209 -0.3161751926 -1.991999984
-0.0004548599827 -0.1775984019 -2.007999897
-0.0004578047956 -0.2801981568 -2.020999908
0.02323112264 -0.2126700431 -2.022000074
-0.120836474 -0.3137843609 -1.998000026
0.00963213481 -0.204579547 -2.009000063
0.002940604929 -0.3021236956 -2.032000065
-0.07046428323 -0.2595117986 -1.991999984
-0.02403970435 -0.3464546204 -2.013000011
-0.1249262989 -0.3694811165 -2.00999999
-0.0004530478036 -0.2237422317 -2
-0.0790682435 -0.06785101444 -2.042000055
-0.1293619722 -0.1052810997 -1.975000024
-0.05160047486 -0.3812611699 -2.036999941
-0.1346826851 -0.3584973514 -2.005000114
-0.04819120467 -0.3812611699 -2.036999941
-0.1004698724 -0.2661781013 -1.991999984
-0.007172752637 -0.1674352437 -2.006999969
-0.003830794943 -0.2693850696 -2.016000032
-0.1172335744 -0.08191743493 -2.052000046
-0.03380774334 -0.3230035603 -1.993000031
-0.0104793366 -0.2000160515 -1.996999979
0.006316539366 -0.267067343 -2.023999929
-0.0407227315 -0.1672683954 -2.005000114
-0.03385863453 -0.2633727491 -1.996000051
-0.1164339855 -0.1817480624 -1.980000019
-0.090240933 -0.2156383544 -1.986999989
-0.06049277261 -0.1929458082 -1.993000031
-0.1399893761 -0.4353901446 -2.084000111
0.01302041393 -0.2083551586 -2.013000011
-0.07868102938 -0.08451909572 -2.032000065
-0.08196074516 -0.09118441492 -2.029000044
-0.1140913442 -0.3002612889 -1.996999979
-0.1218808293 -0.1373475045 -1.960999966
-0.1693429649 -0.4145302773 -2.101999998
-0.131261453 -0.3583185077 -2.003999949
-0.07209147513 -0.09499899298 -2.038000107
-0.06373231858 -0.3191875517 -1.99000001
-0.1526114792 -0.3140928149 -2.065999985
-0.0573865734 -0.3443892896 -2.000999928
-0.05438862368 -0.1545394063 -2.013999939
-0.0004544069525 -0.1841346473 -2.006000042
-0.01729290746 -0.3361827135 -2.012000084
0.01311096828 -0.2403295636 -2.02699995
-0.1071377769 -0.2261803895 -1.991999984
-0.04106801003 -0.3649203181 -2.022000074
-0.05066320673 -0.1735443175 -2
-0.01722414605 -0.2644283473 -2.003999949
-0.1110263169 -0.3579609394 -2.002000093
-0.07053502649 -0.1696871966 -1.993999958
-0.1220460385 -0.27302894 -2.017999887
-0.03382470831 -0.1930426061 -1.993999958
-0.1069764271 -0.09271491319 -1.988999963
-0.07794532925 -0.3599277437 -2.013000011
-0.02129698358 -0.3847160041 -2.073999882
-0.1344811618 -0.3177624345 -2.002000093
-0.1282203645 -0.0858085081 -2.062999964
-0.1446380615 -0.4044727385 -2.051000118
-0.08388423175 -0.2497628927 -1.993999958
-0.1288009733 -0.3810816109 -2.017999887
-0.09991506487 -0.1752103716 -1.980999947
-0.1130629778 -0.1750334948 -1.978999972
-0.1470357627 -0.4355990589 -2.085000038
-0.083589755 -0.1857153773 -1.986999989
-0.05709978566 -0.2260668576 -1.991000056
-0.1748687029 -0.3900580704 -2.084000111
0.002907320624 -0.1844100356 -2.009000063
0.006375835277 -0.3311070204 -2.042999983
-0.07092414051 -0.1370743513 -2.005000114
-0.003844096325 -0.3210956156 -2.023000002
-0.05040989071 -0.2226235121 -1.99000001
-0.05715714395 -0.1962806135 -1.993000031
-0.1254856735 -0.3812704682 -2.019000053
-0.05046055466 -0.2128478289 -1.991999984
-0.1342124641 -0.3371866345 -1.998000026
-0.1031785011 -0.1784349978 -1.980000019
-0.1142056063 -0.2871825695 -1.998999953
-0.1046561226 -0.4022616446 -2.075000048
-0.1659531444 -0.3439384997 -2.017999887
-0.05718582124 -0.1830331385 -1.993999958
-0.07720962912 -0.2497628927 -1.993999958
-0.1036474928 -0.09271491319 -1.988999963
-0.1143770069 -0.3579609394 -2.002000093
-0.04381462932 -0.2563072741 -1.993000031
-0.1297549605 -0.1685809046 -1.980999947
0.002902979031 -0.1975609213 -2.006000042
-0.04717391357 -0.2831277847 -1.993999958
-0.1207759902 -0.3169688284 -1.996999979
-0.01726712286 -0.3188734949 -2.009000063
-0.02376503311 -0.2426022887 -1.99000001
-0.02401581965 -0.1576741338 -2.010999918
-0.06373231858 -0.3225173652 -1.99000001
-0.1119774878 -0.1241590828 -1.960000038
0.01980769448 -0.208872661 -2.017999887
-0.1412530541 -0.3246242404 -2.003000021
-0.119264029 -0.1579159945 -1.972000003
-0.02729988098 -0.1672683954 -2.005000114
-0.06713032722 -0.1961821318 -1.991999984
-0.04733951762 -0.1736310869 -2.000999928
-0.02069114149 -0.147872895 -2.015000105
-0.1219855621 -0.2492688447 -2.01699996
-0.08859588951 -0.4258907735 -2.105999947
-0.164957121 -0.4193586111 -2.09100008
-0.1588037759 -0.3363497853 -2.013000011
-0.05114450678 -0.1447881162 -2.019000053
-0.1249262989 -0.3661178648 -2.00999999
-0.08805263788 -0.1005702019 -2.013000011
-0.01060003042 -0.3307594061 -2.019999981
-0.05718582124 -0.1863696277 -1.993999958
-0.1211388633 -0.3581397235 -2.003000021
-0.1489919424 -0.3673928678 -2.01699996
-0.07697730511 -0.1858088523 -1.988000035
-0.05376750603 -0.2227353901 -1.991000056
-0.1628173739 -0.3579764664 -2.020999908
-0.04379264638 -0.3295077682 -1.991999984
-0.003792791162 -0.2299744189 -1.996000051
-0.1239610314 -0.4404042065 -2.10800004
0.02694435604 -0.242700845 -2.046999931
-0.04372669011 -0.2424803674 -1.988999963
-0.1378318518 -0.3177624345 -2.002000093
-0.003806092311 -0.1872108281 -2.003000021
-0.09046800435 -0.3128420711 -1.991999984
-0.1028137356 -0.1579960734 -1.97300005
-0.01713819802 -0.1963790953 -1.993999958
-0.1051604822 -0.06579104811 -2.085000038
-0.1252905577 -0.1079260409 -1.963000059
0.002937710611 -0.3188099265 -2.029999971
-0.1698263437 -0.4227680266 -2.10800004
-0.05053655058 -0.2665789723 -1.995000005
-0.0803045705 -0.2756229341 -1.988000035
-0.0138285812 -0.1900866777 -1.998000026
-0.0671640262 -0.2496376485 -1.993000031
-0.0965019986 -0.1617879272 -1.978999972
-0.1099171564 -0.2051465064 -1.981999993
-0.1037482545 -0.085558936 -2.056999922
0.01656863652 -0.2685188353 -2.035000086
-0.02727264725 -0.2743510604 -2.003000021
0.02693119459 -0.2596997619 -2.046000004
-0.08987760544 -0.1485423744 -1.978999972
-0.09733097255 -0.3301694393 -1.996000051
-0.1065461561 -0.1950987875 -1.980999947
-0.1343467981 -0.3475637436 -2
-0.09996417165 -0.08526778221 -2.049999952
-0.1080521122 -0.2482801825 -2.009000063
-0.02743603848 -0.147872895 -2.015000105
-0.04707928374 -0.2392724901 -1.99000001
-0.06702922285 -0.2824178338 -1.988999963
-0.09708715975 -0.2993591428 -1.991000056
-0.05091652274 -0.35602808 -2.00999999
-0.06043206528 -0.2327297926 -1.991000056
-0.0206706021 -0.3464546204 -2.013000011
-0.08535663038 -0.0843943134 -2.029000044
-0.03764656931 -0.1448598206 -2.019999981
-0.05939410254 -0.1450518519 -2.071000099
-0.1135918647 -0.4341720343 -2.111999989
-0.08831509203 -0.09411332756 -2.019000053
-0.1036474928 -0.08938679099 -1.988999963
-0.0971846804 -0.2262939513 -1.993000031
-0.003825094318 -0.1578309536 -2.013000011
-0.030395668 -0.2357055694 -1.988000035
-0.09926433116 -0.4262952507 -2.10800004
-0.1474931985 -0.399476558 -2.042999983
-0.1206550375 -0.3433566689 -1.995000005
-0.1361106634 -0.1583163887 -1.976999998
-0.07216221094 -0.09850567579 -2.039999962
0.0303258542 -0.2320846915 -2.04399991
-0.01056329813 -0.2757207453 -2.013000011
-0.1066698954 -0.08514299989 -2.046999931
-0.02059872262 -0.3049710691 -2.006000042
-0.08107206225 -0.3521384299 -2.006999969
-0.03506302461 -0.3868761957 -2.066999912
-0.09155798703 -0.09734678268 -2.016000032
-0.1300169677 -0.208778441 -1.985000014
-0.1458327174 -0.3848392963 -2.019999981
-0.1250506043 -0.268850565 -2.012000084
-0.06037135795 -0.292402178 -1.988999963
-0.007415776141 -0.3675414324 -2.075000048
-0.10557805 -0.1342029721 -1.963000059
-0.01712100767 -0.2428461015 -1.991999984
-0.1098062471 -0.1883741915 -1.980000019
-0.138855353 -0.1280238479 -1.968999982
-0.07775171846 -0.35567379 -2.007999897
-0.1170220375 -0.2292831093 -1.99000001
-0.1458327174 -0.3814592957 -2.019999981
-0.03389256075 -0.3338434398 -1.998000026
-0.04710294306 -0.2960276902 -1.991000056
-0.05392953381 -0.34035936 -1.996999979
-0.03158825636 -0.1412446946 -2.065999985
0.03344965726 -0.1995306164 -2.026000023
-0.09630694985 -0.09867171198 -1.975000024
-0.0004530478036 -0.2137026489 -2
-0.0538485162 -0.2631088495 -1.993999958
-0.06389245391 -0.3366803527 -1.995000005
-0.1030742824 -0.1683256179 -1.978000045
-0.1357574463 -0.3884114623 -2.020999908
-0.08687160164 -0.1557139903 -1.985999942
-0.08726528287 -0.3266658485 -1.995000005
-0.1413235664 -0.3516120613 -2.003999949
-0.1394900382 -0.1617061943 -1.978000045
-0.04961067811 -0.06616969407 -2.096999884
-0.06379637122 -0.26284495 -1.991999984
-0.02735434286 -0.3457661867 -2.009000063
0.0303852018 -0.2359657437 -2.048000097
-0.1072991341 -0.283269763 -1.995000005
-0.1107490212 -0.2701877058 -1.996999979
-0.02706840821 -0.2157468796 -1.988000035
-0.1778055429 -0.4320653975 -2.118999958
-0.00720849121 -0.293143481 -2.01699996
-0.0538485162 -0.1930426061 -1.993999958
-0.003887800733 -0.3418637216 -2.046000004
-0.0962812081 -0.05270617455 -2.119999886
-0.08371596038 -0.139378652 -1.99000001
-0.07701602578 -0.179246068 -1.988999963
-0.007140588015 -0.2435775697 -1.998000026
-0.04733951762 -0.3443892896 -2.000999928
-0.1087525487 -0.1176598817 -1.960999966
-0.0978673622 -0.3622131646 -2.006999969
-0.1173484847 -0.4456161857 -2.115999937
-0.0205679182 -0.1704530865 -2.003000021
-0.1285104752 -0.1242857724 -1.962000012
-0.1006211862 -0.3233276904 -1.995000005
-0.0004573517654 -0.1515447646 -2.019000053
-0.1588826627 -0.3432567716 -2.013999939
-0.04039775953 -0.2391522527 -1.988999963
0.002916003577 -0.1681026518 -2.015000105
-0.1309994608 -0.3174449801 -2
-0.1135918647 -0.4377059639 -2.111999989
-0.007162030786 -0.1772446185 -2.003999949
-0.1100049615 -0.4304341972 -2.111000061
-0.02375308983 -0.2091991603 -1.988999963
-0.007219213061 -0.3273794353 -2.019999981
-0.0976235494 -0.3512611985 -2.002000093
-0.07368709147 -0.3057146668 -1.988999963
-0.0173530709 -0.3508656025 -2.019000053
-0.02383668721 -0.2533532679 -1.996000051
-0.07087101787 -0.421765238 -2.102999926
-0.05715714395 -0.1929458082 -1.993000031
-0.1528209895 -0.3820258379 -2.023000002
-0.1106381118 -0.313313216 -1.995000005
-0.1142056063 -0.2838377059 -1.998999953
-0.02180014364 -0.397357583 -2.122999907
-0.05371349305 -0.2990584373 -1.988999963
-0.08709031343 -0.2227353901 -1.991000056
-0.06713032722 -0.206181556 -1.991999984
-0.02196444012 -0.4039314091 -2.138999939
-0.04712659866 -0.2495123893 -1.991999984
-0.1555404961 -0.4129408598 -2.059000015
-0.1042728126 -0.2573360801 -2.000999928
-0.05712846294 -0.2728443742 -1.991999984
-0.07368709147 -0.3090427816 -1.988999963
-0.086915344 -0.2788090706 -1.986999989
-0.07697730511 -0.2024410814 -1.988000035
-0.05884920061 -0.07161682844 -2.052000046
-0.05991031975 -0.4084711373 -2.088999987
-0.05546883121 -0.06824973971 -2.053999901
-0.04942141846 -0.4049756825 -2.088999987
-0.1397206783 -0.4310740232 -2.079999924
-0.1187801957 -0.1474164873 -1.963999987
-0.07049965858 -0.2429680228 -1.993000031
-0.1334602982 -0.4508477449 -2.09100008
-0.02065006457 -0.1576741338 -2.010999918
-0.1560692787 -0.3140928149 -2.065999985
-0.07378940284 -0.4078845382 -2.085999966
-0.1139770821 -0.3199895322 -1.995000005
-0.09422576427 -0.3477374911 -2.000999928
-0.09375488013 -0.2993591428 -1.991000056
-0.1183157489 -0.2553841472 -2.012000084
-0.02389639616 -0.1769792885 -2.000999928
-0.08371596038 -0.1593574136 -1.99000001
-0.09737972915 -0.333676368 -1.996999979
-0.01378013287 -0.2194039226 -1.991000056
-0.0803045705 -0.2024410814 -1.988000035
-0.08569317311 -0.3812611699 -2.036999941
-0.1106381118 -0.3032987416 -1.995000005
-0.04074303806 -0.3486064374 -2.006000042
-0.06319415569 -0.4036186635 -2.082000017
-0.0004564456758 -0.1579877734 -2.015000105
-0.003844096325 -0.3075555563 -2.023000002
-0.112206012 -0.1474164873 -1.963999987
-0.1543843001 -0.440140754 -2.089999914
-0.0505872108 -0.34035936 -1.996999979
-0.1060620993 -0.09522215277 -1.972000003
-0.06279957294 -0.1449117661 -2.069000006
-0.05376750603 -0.2293983251 -1.991000056
-0.01833288558 -0.3956601918 -2.132999897
-0.00046460054 -0.3461310267 -2.051000118
-0.1218041256 -0.2556380033 -2.013999939
-0.07713218778 -0.2228472531 -1.991999984
-0.02061925828 -0.2985552847 -2.007999897
-0.07209147513 -0.08135855198 -2.038000107
-0.145110786 -0.3156689405 -2.00999999
-0.01728431135 -0.1576741338 -2.010999918
-0.1552802324 -0.3393805325 -2.010999918
-0.03716200963 -0.1930426061 -1.993999958
-0.07409461588 -0.1434255689 -2
-0.09064967185 -0.3268296123 -1.996000051
0.006544359028 -0.3574028909 -2.096999884
-0.1698263437 -0.4192407727 -2.10800004
-0.1420287788 -0.3735863268 -2.013999939
-0.115963541 -0.1579159945 -1.972000003
-0.1398426443 -0.1687511057 -1.98300004
-0.08670281619 -0.06848233938 -2.061000109
-0.123931855 -0.3298386037 -1.993999958
-0.1088585332 -0.04494458064 -2.088999987
-0.1077831835 -0.2577219009 -2.003999949
-0.0708533898 -0.1436407119 -2.003000021
-0.06827612966 -0.3724222481 -2.026000023
-0.1018171683 -0.06588571519 -2.088000059
-0.0968433395 -0.2122067213 -1.985999942
-0.07933928818 -0.1126543283 -2.049000025
-0.01712100767 -0.206181556 -1.991999984
-0.08354768902 -0.1158367768 -1.985999942
-0.007330003195 -0.3495629132 -2.051000118
-0.03372292966 -0.2290526778 -1.988000035
-0.05698506907 -0.3153815866 -1.986999989
-0.05046055466 -0.206181556 -1.991999984
-0.02397999167 -0.2985552847 -2.007999897
-0.1018659323 -0.06242181733 -2.088999987
-0.1308684647 -0.3204707205 -1.998000026
-0.1299514621 -0.1953942478 -1.983999968
0.006266606506 -0.2313570082 -2.007999897
0.00963213481 -0.2247490734 -2.009000063
-0.08367389441 -0.2957302928 -1.988999963
0.0130527541 -0.1818594933 -2.017999887
-0.09664829075 -0.1719824225 -1.981999993
-0.1013782993 -0.07951658219 -2.078999996
-0.02476817928 -0.3812456727 -2.073999882
-0.007137014065 -0.1966745555 -1.996999979
-0.06046241894 -0.2261803895 -1.991999984
-0.05376750603 -0.2860332727 -1.991000056
-0.1033348367 -0.2085680962 -1.98300004
-0.05487472191 -0.3769252598 -2.032000065
-0.05709978566 -0.2194039226 -1.991000056
-0.08038535714 -0.2659108341 -1.99000001
-0.09046800435 -0.2595117986 -1.991999984
-0.0038383957 -0.2901994884 -2.019999981
0.009761585854 -0.302718401 -2.036000013
-0.1393848062 -0.423093766 -2.075000048
-0.1168456227 -0.2222878933 -1.986999989
-0.0004546334676 -0.1808681935 -2.006999969
-0.08224350959 -0.0744651705 -2.036000013
-0.1172572523 -0.3298386037 -1.993999958
-0.0972822085 -0.3199895322 -1.995000005
-0.09507337958 -0.0907350108 -2.019000053
-0.07937800884 -0.1161394939 -2.049999952
-0.05368648842 -0.3221932352 -1.988000035
-0.1032306105 -0.2017282546 -1.980999947
-0.01053181197 -0.1674352437 -2.006999969
-0.01074171346 -0.3454559445 -2.046999931
-0.003800391685 -0.2003165334 -2
-0.08682785928 -0.1290641725 -1.985000014
-0.03372292966 -0.2357055694 -1.988000035
-0.0771709159 -0.31966874 -1.993000031
0.002937710611 -0.3120164871 -2.029999971
-0.02401581965 -0.3427454531 -2.010999918
-0.1316544563 -0.3694811165 -2.00999999
-0.1065461561 -0.2017282546 -1.980999947
-0.1352200657 -0.3026669919 -2.013000011
-0.1030850112 -0.4381204545 -2.114000082
-0.04918484017 -0.3960796595 -2.078999996
-0.07379823178 -0.2228472531 -1.991999984
-0.08722153306 -0.2330804616 -1.993999958
-0.0820415318 -0.08787588775 -2.030999899
-0.07372414321 -0.3125279844 -1.99000001
-0.07042890787 -0.2060780525 -1.991000056
-0.07705474645 -0.3091981709 -1.99000001
-0.1185987592 -0.1110973433 -1.960999966
-0.05452365428 -0.1447881162 -2.019000053
-0.1319819689 -0.3771435022 -2.015000105
-0.1595270932 -0.3175497949 -2.065999985
-0.1319285631 -0.1309850365 -1.963999987
-0.07379823178 -0.3228414953 -1.991999984
-0.07427985221 -0.3484326601 -2.005000114
-0.03041095659 -0.2391522527 -1.988999963
-0.01385626663 -0.1770677418 -2.002000093
-0.02374114841 -0.2290526778 -1.988000035
-0.08112045377 -0.4201608002 -2.095000029
-0.1184921637 -0.3737718761 -2.015000105
-0.05403755233 -0.3443892896 -2.000999928
-0.1131772399 -0.1950987875 -1.980999947
-0.1279074252 -0.304666996 -2.003999949
-0.1239940152 -0.3266658485 -1.995000005
-0.01389087178 -0.2648242116 -2.006999969
-0.08438906074 -0.3553195596 -2.006000042
-0.1323316097 -0.1445705146 -1.970000029
-0.1276521236 -0.354256779 -2
-0.007169179153 -0.2546225488 -2.006000042
0.03734966367 -0.2469676733 -2.053999901
-0.1286414713 -0.1375576258 -1.963999987
-0.02401581965 -0.3393805325 -2.010999918
-0.1315889657 -0.3020655811 -2.009000063
-0.09655076265 -0.1651827544 -1.980000019
-0.1219429821 -0.1407004893 -1.962000012
-0.0931897983 -0.1286740452 -1.978999972
-0.07535421848 -0.0948125273 -2.03399992
-0.1008229256 -0.3473899364 -1.998999953
-0.1131201163 -0.0922953859 -1.980000019
-0.05721449852 -0.1797867715 -1.995000005
-0.1552802324 -0.3225558698 -2.010999918
-0.1162575707 -0.1682405174 -1.976999998
-0.1412530541 -0.321272701 -2.003000021
-0.06382840127 -0.2563072741 -1.993000031
-0.1164927855 -0.2017282546 -1.980999947
-0.1350857019 -0.3696649075 -2.010999918
-0.1038038284 -0.2828437984 -1.991999984
-0.02049603686 -0.2533532679 -1.996000051
-0.07868102938 -0.08111902326 -2.032000065
0.03384590149 -0.2567772865 -2.049999952
-0.1210795864 -0.3957146108 -2.059000015
-0.1068262234 -0.3871245384 -2.049999952
-0.09185818583 -0.06275051087 -2.099999905
-0.1082331985 -0.07248934358 -2.076999903
-0.1114699766 -0.2450404912 -2.00999999
-0.09408450127 -0.3405297995 -1.998000026
-0.04053993523 -0.3368491232 -1.996000051
-0.08042575419 -0.2194039226 -1.991000056
0.00631341897 -0.2601653934 -2.023000002
-0.07720962912 -0.2364169508 -1.993999958
-0.1393848062 -0.4265657961 -2.075000048
-0.02710925788 -0.2460556626 -1.991000056
-0.1227261201 -0.05188575014 -2.086999893
-0.08216271549 -0.07779543847 -2.03399992
-0.1454842985 -0.3067328334 -2.062999964
-0.1306945086 -0.05372549593 -2.161000013
-0.09384905547 -0.2262939513 -1.993000031
-0.1027924269 -0.4262952507 -2.10800004
-0.03056385368 -0.3005619943 -1.998999953
-0.1319285631 -0.1276987493 -1.963999987
-0.119118914 -0.0588135384 -2.085000038
-0.08062772453 -0.3301694393 -1.996000051
-0.150173828 -0.3941194713 -2.032999992
-0.0641957894 -0.4206329286 -2.11500001
-0.1067612916 -0.21209988 -1.985000014
-0.007179900538 -0.2583649457 -2.009000063
-0.152367726 -0.3707678616 -2.01699996
-0.1356902719 -0.2969594896 -2.019999981
0.01313684043 -0.271389395 -2.030999899
-0.05592792854 -0.3980208933 -2.071000099
-0.1111715809 -0.3937934637 -2.066999912
-0.04715025797 -0.2529724538 -1.993000031
0.009766380303 -0.2926417589 -2.036999941
0.02344941534 -0.2351591885 -2.040999889
-0.1353544146 -0.3771435022 -2.015000105
-0.1244912297 -0.301163435 -2.003000021
-0.06726513058 -0.1698573977 -1.996000051
-0.1038559377 -0.2963250577 -1.993000031
-0.1231238768 -0.1950987875 -1.980999947
-0.0004655066296 -0.3536832035 -2.055000067
-0.1095289588 -0.1647656262 -1.975000024
0.01644650847 -0.1921797246 -2.019999981
-0.1548606157 -0.4042754769 -2.049999952
-0.0563330017 -0.4043940902 -2.085999966
-0.1295030713 -0.291492492 -2.029000044
0.002929027658 -0.2738407254 -2.023999929
-0.06043206528 -0.2793703377 -1.991000056
-0.1035432741 -0.2189631313 -1.986999989
-0.1172572523 -0.3331750929 -1.993999958
-0.1198083311 -0.185154587 -1.980999947
-0.1074066982 -0.2701877058 -1.996999979
-0.02394416742 -0.3081739247 -2.005000114
-0.1024489552 -0.1475666016 -1.965999961
-0.1357664317 -0.1513166428 -1.972000003
-0.09920895845 -0.1344764382 -1.967000008
-0.01713819802 -0.2464264035 -1.993999958
-0.07713218778 -0.1661838591 -1.991999984
-0.06379637122 -0.1828495562 -1.991999984
-0.152367726 -0.3673928678 -2.01699996
-0.0962581858 -0.1481670886 -1.973999977
-0.1091815755 -0.08783262968 -2.029999971
-0.08978677541 -0.1020796746 -1.976999998
-0.06382840127 -0.2463028282 -1.993000031
-0.123061724 -0.1718088686 -1.980000019
-0.1039601564 -0.3266658485 -1.995000005
-0.1019634604 -0.05198520049 -2.09100008
-0.142511785 -0.1382580101 -1.973999977
-0.08375803381 -0.3093535602 -1.991000056
-0.08678411692 -0.1256793886 -1.983999968
0.01305922307 -0.1785713136 -2.019000053
-0.08375803381 -0.1461116225 -1.991000056
0.01302688196 -0.2017187476 -2.013999939
-0.1071377769 -0.2295135409 -1.991999984
-0.1106381118 -0.2866079211 -1.995000005
-0.06049277261 -0.1862761676 -1.993000031
-0.05709978566 -0.2227353901 -1.991000056
-0.1147974357 -0.4012923241 -2.069999933
-0.07421388477 -0.4172519743 -2.09800005
-0.030395668 -0.2157468796 -1.988000035
-0.06713032722 -0.189515844 -1.991999984
-0.1222537458 -0.1015633345 -1.967000008
-0.003802291816 -0.1937202811 -2.000999928
-0.1102133989 -0.4418666661 -2.11500001
-0.05203111097 -0.07168662548 -2.053999901
-0.1226085201 -0.06230229512 -2.085000038
-0.08054693043 -0.3265021145 -1.993999958
-0.09473708272 -0.07629388571 -2.085999966
-0.003899201984 -0.3497333229 -2.052000046
-0.1165515929 -0.2051465064 -1.981999993
-0.03389256075 -0.2669798434 -1.998000026
-0.06427676231 -0.1439275593 -2.006999969
-0.07697730511 -0.2057675421 -1.988000035
-0.07376118749 -0.1760948449 -1.991000056
-0.08687108755 -0.4003230333 -2.065000057
-0.1184333488 -0.2825976014 -2.013999939
-0.06049277261 -0.2596420944 -1.993000031
0.03381288424 -0.2359657437 -2.048000097
0.002923239022 -0.2530195713 -2.019999981
-0.1117094159 -0.07596471161 -2.076999903
-0.0969408676 -0.2722964883 -1.988000035
-0.07864230126 -0.08787588775 -2.030999899
-0.1287371516 -0.2593937516 -2.01699996
-0.06901752949 -0.07147722691 -2.048000097
-0.1164927855 -0.1884693205 -1.980999947
-0.01051606983 -0.1772446185 -2.003999949
-0.1500200033 -0.4271825254 -2.078000069
-0.01709522307 -0.2191835195 -1.988999963
-0.1231238768 -0.1785251051 -1.980999947
-0.07033181936 -0.4080800414 -2.086999893
-0.1016221195 -0.06924657524 -2.084000111
-0.03727383167 -0.2806331813 -2
-0.07624336332 -0.3920788765 -2.058000088
-0.06616631895 -0.3936029673 -2.065999985
-0.136248365 -0.1650993228 -1.978999972
-0.05709978566 -0.2293983251 -1.991000056
-0.1039080471 -0.3131561577 -1.993999958
-0.129820466 -0.1719824225 -1.981999993
-0.09713591635 -0.3095089197 -1.991999984
-0.156361267 -0.3857918978 -2.025000095
0.01643836685 -0.1954629123 -2.019000053
0.006294693798 -0.1615195572 -2.01699996
-0.1057393923 -0.1080909744 -1.965999961
-0.0004591639445 -0.3217304945 -2.02699995
-0.0272181835 -0.2637685835 -1.998999953
-0.02041388862 -0.2190733254 -1.988000035
-0.08910243958 -0.3812611699 -2.036999941
-0.06536565721 -0.08489343524 -2.040999889
-0.07405756414 -0.1333192885 -1.998999953
-0.04757609963 -0.1576741338 -2.010999918
-0.07042890787 -0.216072455 -1.991000056
-0.04066179693 -0.1737178713 -2.002000093
-0.1285759807 -0.1079260409 -1.963000059
-0.08367389441 -0.169261694 -1.988999963
-0.1174924746 -0.3037548363 -1.998000026
-0.06699553132 -0.3088874221 -1.988000035
-0.05414558202 -0.3484326601 -2.005000114
-0.06366826594 -0.3055609763 -1.988000035
-0.04715025797 -0.2563072741 -1.993000031
-0.09010468423 -0.182115227 -1.983999968
-0.07379823178 -0.2595117986 -1.991999984
-0.06382840127 -0.3296732008 -1.993000031
-0.1013777331 -0.3661178648 -2.00999999
-0.1289924532 -0.3884114623 -2.020999908
-0.1750365049 -0.372980237 -2.085999966
-0.05473969132 -0.3726060688 -2.02699995
-0.0983062312 -0.0906001851 -2.016000032
-0.0519551225 -0.075013794 -2.051000118
-0.08975857496 -0.07505036145 -2.052000046
-0.1230136976 -0.2820005119 -2.03399992
-0.08050654083 -0.2296287566 -1.993000031
-0.1447498202 -0.3484326601 -2.005000114
-0.1033775806 -0.04915885627 -2.119999886
-0.1334063709 -0.1822988093 -1.985999942
-0.08862128109 -0.08426953107 -2.026000023
-0.1350779682 -0.1177198812 -1.962000012
0.03386241198 -0.2500388622 -2.051000118
-0.1106381118 -0.3400185108 -1.995000005
-0.03723655641 -0.3338434398 -1.998000026
-0.09991506487 -0.1785251051 -1.980999947
-0.04372669011 -0.2291678786 -1.988999963
-0.08535663038 -0.08099926263 -2.029000044
0.0234034583 -0.2312898934 -2.036999941
-0.05051121488 -0.2631088495 -1.993999958
-0.1385891587 -0.3026669919 -2.013000011
-0.08384216577 -0.3163339496 -1.993000031
-0.08594558388 -0.3858026564 -2.042999983
-0.01057904027 -0.286251545 -2.016000032
-0.1004698724 -0.26284495 -1.991999984
0.02665477619 -0.1892670691 -2.025000095
-0.1448941976 -0.3554966748 -2.006999969
-0.1164927855 -0.09234199673 -1.980999947
-0.08046614379 -0.1261861622 -1.991999984
-0.09060425311 -0.3199895322 -1.995000005
-0.1140913442 -0.3503838778 -1.996999979
-0.01081517991 -0.3616130352 -2.061000109
-0.1519900262 -0.315983057 -2.012000084
0.009641722776 -0.2283377349 -2.010999918
-0.1247675866 -0.0858085081 -2.062999964
-0.07933928818 -0.3869357109 -2.049000025
-0.100873366 -0.3509102464 -2
-0.06723142415 -0.3333421946 -1.995000005
-0.07720962912 -0.1329858303 -1.993999958
-0.1006716192 -0.3268296123 -1.996000051
-0.05867712572 -0.08852490783 -2.046000004
-0.07839210331 -0.06322860718 -2.115999937
0.03042971157 -0.2466069907 -2.051000118
-0.07405756414 -0.1400090009 -1.998999953
-0.04722123221 -0.1865565628 -1.996000051
-0.1266309023 -0.2053535134 -1.983999968
-0.1185382828 -0.1307182759 -1.960000038
-0.1140342206 -0.2333142459 -1.996000051
-0.1090202183 -0.3759977818 -2.02699995
-0.1157871261 -0.1543810964 -1.968999982
-0.07032278925 -0.2889287472 -1.988000035
-0.02069114149 -0.1512445211 -2.015000105
-0.1177865043 -0.3581397235 -2.003000021
-0.1552802324 -0.3427454531 -2.010999918
-0.1333326399 -0.4434256256 -2.088999987
-0.02049603686 -0.256693095 -1.996000051
-0.01385626663 -0.2541148365 -2.002000093
-0.06424473971 -0.1472124159 -2.006000042
-0.1250506043 -0.2654839754 -2.012000084
-0.1294244528 -0.07826890051 -2.140000105
-0.129774183 -0.4397195876 -2.088000059
-0.1254182011 -0.104748033 -1.965000033
-0.1151301786 -0.07245444506 -2.075999975
-0.1030925736 -0.3859914839 -2.04399991
-0.01727571711 -0.3055791855 -2.00999999
-0.02073221467 -0.3542439044 -2.019000053
-0.07713218778 -0.2295135409 -1.991999984
-0.1300169677 -0.2054570168 -1.985000014
-0.08050654083 -0.1295843273 -1.993000031
-0.09991506487 -0.191784054 -1.980999947
-0.01378013287 -0.2327297926 -1.991000056
-0.09747725725 -0.2470443249 -1.998999953
-0.04047900066 -0.1962806135 -1.993000031
-0.1186592355 -0.1439834237 -1.962000012
-0.1204915345 -0.08865471184 -2.049000025
-0.1318008155 -0.09625756741 -2.065000057
-0.03375685588 -0.2059745491 -1.99000001
-0.1106381118 -0.3366803527 -1.995000005
-0.03167999163 -0.3878120482 -2.072000027
0.03384590149 -0.2430565357 -2.049999952
-0.166364342 -0.3651007712 -2.023000002
-0.1111372262 -0.2543686926 -2.003999949
-0.0246129334 -0.140902862 -2.061000109
-0.08192035556 -0.1013196111 -2.028000116
-0.07046428323 -0.1795164198 -1.991999984
-0.08384216577 -0.2296287566 -1.993000031
-0.03407915682 -0.1642405093 -2.009000063
0.002911661984 -0.1779522002 -2.012000084
-0.01391163561 -0.2719465792 -2.00999999
0.02695752122 -0.2530999482 -2.048000097
-0.1286733299 -0.2626384497 -2.016000032
-0.1114145219 -0.2482801825 -2.009000063
-0.1662821025 -0.3378535807 -2.022000074
-0.02397999167 -0.1607988328 -2.007999897
-0.07258670032 -0.3875022233 -2.052000046
-0.1401952505 -0.1891352981 -1.988000035
0.01647093333 -0.1789250821 -2.023000002
-0.06702922285 -0.2857459486 -1.988999963
-0.07720962912 -0.2464264035 -1.993999958
-0.100873366 -0.2371283323 -2
-0.103718929 -0.04576214775 -2.127000093
-0.02819852903 -0.384159565 -2.071000099
-0.08978677541 -0.1186198816 -1.976999998
-0.0738723278 -0.2397534251 -1.993999958
0.009723230265 -0.2642017901 -2.028000116
-0.08375803381 -0.2227353901 -1.991000056
-0.1221915931 -0.1508562416 -1.965999961
-0.05764468387 -0.3526647985 -2.00999999
-0.01716398261 -0.1899915338 -1.996999979
-0.1020609811 -0.4127553999 -2.092999935
-0.1305735409 -0.06451349705 -2.15899992
-0.07494670153 -0.3684857786 -2.023000002
-0.1282203645 -0.0892604515 -2.062999964
-0.05444263667 -0.1479462832 -2.016000032
-0.06046241894 -0.2028484046 -1.991999984
-0.07032278925 -0.292255193 -1.988000035
-0.08476767689 -0.3636569977 -2.015000105
-0.1098062471 -0.0922953859 -1.980000019
-0.1300169677 -0.1988141686 -1.985000014
-0.1124127507 -0.3793894649 -2.02699995
-0.1736833751 -0.4271041453 -2.111999989
0.0198273249 -0.1921797246 -2.019999981
-0.0004612026678 -0.3299725354 -2.036000013
0.009713641368 -0.2537711263 -2.026000023
-0.04703196883 -0.3188667595 -1.988000035
-0.1342124641 -0.3405297995 -1.998000026
-0.05444263667 -0.1513195783 -2.016000032
-0.1106381118 -0.2799316049 -1.995000005
-0.1241183132 -0.08974631131 -1.996999979
-0.09010468423 -0.1920744926 -1.983999968
0.01307215914 -0.1686031967 -2.020999908
-0.08987760544 -0.1452309936 -1.978999972
-0.04049931094 -0.2597723603 -1.993999958
-0.1124916673 -0.09507729113 -1.968999982
-0.08354768902 -0.1125136763 -1.985999942
-0.1329361647 -0.1650993228 -1.978999972
-0.02070140839 -0.1445729733 -2.016000032
-0.05365948007 -0.3120568097 -1.986999989
-0.1004194394 -0.2926962078 -1.991000056
-0.06746733189 -0.1603183746 -2.002000093
-0.1317942142 -0.1177198812 -1.962000012
-0.08443112671 -0.1036286801 -2.006999969
-0.02046523243 -0.1996154338 -1.993000031
-0.0771709159 -0.1629324704 -1.993000031
-0.0440784432 -0.1672683954 -2.005000114
0.002937710611 -0.3154132068 -2.029999971
-0.1220672876 -0.1474164873 -1.963999987
-0.05773072317 -0.1510943919 -2.013000011
-0.04100707546 -0.1515447646 -2.019000053
-0.0004530478036 -0.2070095837 -2
-0.01727571711 -0.3291219771 -2.00999999
-0.07402051985 -0.1533116847 -1.998000026
-0.0004786449717 -0.3707366884 -2.112999916
-0.01726712286 -0.3155119121 -2.009000063
-0.1131201163 -0.1817480624 -1.980000019
-0.1111715809 -0.3972520828 -2.066999912
-0.07705474645 -0.1760063916 -1.99000001
0.002931921976 -0.2842814326 -2.026000023
-0.03727383167 -0.2839797139 -2
-0.1185987592 -0.1373475045 -1.960999966
-0.0916942358 -0.3711355031 -2.019000053
-0.1418877542 -0.369848758 -2.012000084
-0.007326428778 -0.1401508301 -2.049999952
0.009751996025 -0.3058244586 -2.03399992
-0.05382151529 -0.2763161659 -1.993000031
-0.1087021977 -0.06233217195 -2.085999966
-0.1025531814 -0.1049079522 -1.968000054
-0.0706057772 -0.3368491232 -1.996000051
0.01997455955 -0.2719239295 -2.035000086
-0.1627368033 -0.3510393798 -2.019999981
-0.1241183132 -0.3503838778 -1.996999979
-0.04717391357 -0.3331750929 -1.993999958
-0.02739519067 -0.3496491313 -2.012000084
-0.1121934801 -0.06233217195 -2.085999966
-0.1301413327 -0.2826937437 -2.039000034
-0.08682785928 -0.1921713054 -1.985000014
-0.02706840821 -0.2257262319 -1.988000035
-0.08717779815 -0.3163339496 -1.993000031
-0.05867712572 -0.08510141075 -2.046000004
-0.1211756393 -0.4502181709 -2.121000051
-0.1040122733 -0.3335092664 -1.996000051
-0.1265670806 -0.2019319236 -1.98300004
-0.1097507849 -0.1717220992 -1.978999972
-0.1123010516 -0.05191061646 -2.088000059
-0.1588826627 -0.3264069855 -2.013999939
-0.02058845572 -0.318238616 -2.005000114
-0.1378318518 -0.354611069 -2.002000093
-0.1218186766 -0.1307182759 -1.960000038
-0.1207759902 -0.3470423818 -1.996999979
-0.09478249401 -0.06934625655 -2.086999893
-0.07046428323 -0.2195141166 -1.991999984
-0.05382151529 -0.1996154338 -1.993000031
-0.1025973782 -0.4219658077 -2.104000092
-0.09015010297 -0.208778441 -1.985000014
-0.01058953442 -0.2966654599 -2.017999887
-0.05053655058 -0.2732552886 -1.995000005
-0.1484009922 -0.3491277695 -2.009000063
0.01981751062 -0.1954629123 -2.019000053
-0.1065461561 -0.1984135211 -1.980999947
0.01981751062 -0.1988412291 -2.019000053
0.02347239479 -0.2524820268 -2.042999983
-0.08624006063 -0.3905547261 -2.049999952
-0.03053327464 -0.1833085269 -1.996999979
-0.06373231858 -0.2825598121 -1.99000001
-0.04767073318 -0.3602853715 -2.015000105
-0.105412662 -0.04496609047 -2.089999914
-0.0004548599827 -0.1742384881 -2.007999897
-0.1251628995 -0.1176598817 -1.960999966
-0.003832695074 -0.1480196565 -2.01699996
-0.1359774321 -0.4267713726 -2.075999975
-0.1198083311 -0.1818398535 -1.980999947
-0.1631396264 -0.3790151775 -2.025000095
-0.1293619722 -0.158156231 -1.975000024
-0.10657271 -0.4379131794 -2.112999916
-0.1163751781 -0.1750334948 -1.978999972
0.01986658759 -0.1620800942 -2.023999929
-0.1164927855 -0.1950987875 -1.980999947
-0.1087525487 -0.1242224202 -1.960999966
-0.08978677541 -0.1053877175 -1.976999998
-0.1307374686 -0.3301694393 -1.996000051
0.01308509614 -0.236470297 -2.023000002
-0.06713032722 -0.1828495562 -1.991999984
0.01986658759 -0.1654667854 -2.023999929
-0.04224602133 -0.3962701559 -2.079999924
-0.01779140905 -0.3735830784 -2.069999933
-0.123434633 -0.2188529223 -1.985999942
-0.1190214008 -0.2365871817 -2.023999929
-0.02397999167 -0.335514307 -2.007999897
-0.1027616188 -0.09522215277 -1.972000003
-0.1153754964 -0.1407004893 -1.962000012
-0.1190802157 -0.3824035227 -2.025000095
-0.04372669011 -0.2191835195 -1.988999963
-0.08548283577 -0.07771895081 -2.032000065
-0.0790682435 -0.07126781344 -2.042000055
